1.634, 1.634, 1.635, 1.635, 1.64, 1.64, 1.641, 1.644, 1.644, 1.644, 1.641, 1.641, 1.635, 1.635, 1.63, 1.63, 1.625, 1.625, 1.62, 1.62, 1.619, 1.619, 1.616, 1.616, 1.616, 1.616, 1.615, 1.615, 1.615, 1.615, 1.614, 1.614, 1.614, 1.614, 1.614, 1.614, 1.615, 1.615, 1.615, 1.615, 1.614, 1.614, 1.614, 1.614, 1.614, 1.614, 1.611, 1.611, 1.61, 1.609, 1.608, 1.608, 1.607, 1.607, 1.607, 1.607, 1.607, 1.607, 1.607, 1.607, 1.607, 1.607, 1.607, 1.607, 1.607, 1.607, 1.607, 1.604, 1.603, 1.603, 1.602, 1.602, 1.602, 1.602, 1.602, 1.602, 1.603, 1.603, 1.604, 1.604, 1.603, 1.603, 1.598, 1.597, 1.596, 1.592, 1.592, 1.592, 1.592, 1.592, 1.592, 1.592, 1.592, 1.596, 1.596, 1.597, 1.597, 1.597, 1.598, 1.598, 1.598, 1.598, 1.598, 1.597, 1.597, 1.597, 1.597, 1.597, 1.596, 1.596, 1.596, 1.596, 1.596, 1.596, 1.596, 1.596, 1.596, 1.596, 1.596, 1.596, 1.597, 1.597, 1.597, 1.597, 1.596, 1.596, 1.595, 1.595, 1.595, 1.595, 1.592, 1.592, 1.592, 1.592, 1.591, 1.591, 1.59, 1.59, 1.59, 1.59, 1.59, 1.59, 1.59, 1.59, 1.591, 1.591, 1.592, 1.592, 1.595, 1.596, 1.597, 1.597, 1.598, 1.598, 1.597, 1.596, 1.596, 1.591, 1.591, 1.586, 1.586, 1.585, 1.585, 1.585, 1.586, 1.586, 1.587, 1.591, 1.591, 1.592, 1.592, 1.592, 1.591, 1.587, 1.586, 1.585, 1.584, 1.584, 1.583, 1.58, 1.579, 1.578, 1.578, 1.578, 1.579, 1.579, 1.583, 1.584, 1.585, 1.586, 1.592, 1.592, 1.597, 1.597, 1.598, 1.599, 1.599, 1.598, 1.597, 1.597, 1.596, 1.592, 1.591, 1.587, 1.586, 1.585, 1.585, 1.585, 1.584, 1.584, 1.583, 1.583, 1.583, 1.579, 1.578, 1.578, 1.577, 1.573, 1.573, 1.573, 1.573, 1.573, 1.572, 1.573, 1.573, 1.573, 1.573, 1.573, 1.573, 1.573, 1.576, 1.576, 1.576, 1.576, 1.576, 1.573, 1.573, 1.572, 1.571, 1.569, 1.569, 1.568, 1.564, 1.563, 1.562, 1.562, 1.561, 1.557, 1.557, 1.557, 1.556, 1.555, 1.555, 1.555, 1.555, 1.556, 1.556, 1.561, 1.562, 1.562, 1.563, 1.567, 1.567, 1.567, 1.564, 1.563, 1.562, 1.561, 1.557, 1.556, 1.555, 1.554, 1.553, 1.553, 1.553, 1.553, 1.552, 1.552, 1.552, 1.552, 1.552, 1.552, 1.552, 1.552, 1.552, 1.552, 1.551, 1.551, 1.551, 1.551, 1.551, 1.551, 1.551, 1.548, 1.547, 1.547, 1.546, 1.546, 1.546, 1.545, 1.545, 1.545, 1.544, 1.544, 1.543, 1.543, 1.542, 1.539, 1.538, 1.537, 1.537, 1.536, 1.536, 1.536, 1.537, 1.537, 1.537, 1.538, 1.538, 1.538, 1.538, 1.537, 1.537, 1.536, 1.535, 1.535, 1.535, 1.535, 1.535, 1.535, 1.535, 1.535, 1.535, 1.535, 1.536, 1.537, 1.537, 1.538, 1.538, 1.538, 1.537, 1.537, 1.537, 1.536, 1.535, 1.534, 1.533, 1.532, 1.532, 1.528, 1.528, 1.527, 1.526, 1.526, 1.526, 1.527, 1.527, 1.528, 1.532, 1.533, 1.535, 1.536, 1.537, 1.537, 1.537, 1.536, 1.535, 1.534, 1.533, 1.528, 1.525, 1.524, 1.522, 1.521, 1.52, 1.52, 1.521, 1.522, 1.523, 1.524, 1.526, 1.527, 1.526, 1.526, 1.524, 1.524, 1.522, 1.522, 1.521, 1.521, 1.521, 1.522, 1.523, 1.524, 1.525, 1.526, 1.527, 1.527, 1.528, 1.527, 1.526, 1.525, 1.524, 1.524, 1.524, 1.523, 1.522, 1.521, 1.521, 1.52, 1.52, 1.52, 1.52, 1.52, 1.521, 1.522, 1.523, 1.524, 1.524, 1.524, 1.524, 1.524, 1.524, 1.524, 1.524, 1.524, 1.524, 1.524, 1.524, 1.524, 1.523, 1.522, 1.522, 1.521, 1.52, 1.52, 1.52, 1.52, 1.52, 1.52, 1.521, 1.522
1.63, 1.634, 1.634, 1.635, 1.639, 1.64, 1.641, 1.641, 1.641, 1.64, 1.64, 1.64, 1.635, 1.63, 1.63, 1.629, 1.625, 1.621, 1.62, 1.62, 1.619, 1.619, 1.616, 1.616, 1.615, 1.615, 1.615, 1.615, 1.614, 1.614, 1.614, 1.614, 1.614, 1.614, 1.615, 1.615, 1.615, 1.615, 1.615, 1.615, 1.615, 1.615, 1.614, 1.614, 1.614, 1.611, 1.611, 1.611, 1.61, 1.609, 1.608, 1.607, 1.607, 1.607, 1.607, 1.607, 1.607, 1.607, 1.607, 1.607, 1.607, 1.607, 1.607, 1.607, 1.607, 1.607, 1.607, 1.604, 1.603, 1.603, 1.602, 1.602, 1.602, 1.602, 1.602, 1.602, 1.603, 1.603, 1.604, 1.604, 1.603, 1.603, 1.598, 1.597, 1.596, 1.596, 1.592, 1.592, 1.592, 1.592, 1.592, 1.592, 1.596, 1.596, 1.597, 1.597, 1.597, 1.598, 1.598, 1.599, 1.598, 1.598, 1.597, 1.597, 1.597, 1.596, 1.596, 1.596, 1.596, 1.592, 1.592, 1.592, 1.592, 1.592, 1.592, 1.595, 1.595, 1.595, 1.595, 1.596, 1.596, 1.597, 1.597, 1.597, 1.597, 1.596, 1.596, 1.596, 1.596, 1.595, 1.595, 1.595, 1.592, 1.592, 1.592, 1.591, 1.591, 1.59, 1.59, 1.59, 1.59, 1.59, 1.59, 1.59, 1.591, 1.591, 1.592, 1.592, 1.596, 1.597, 1.597, 1.598, 1.598, 1.598, 1.597, 1.597, 1.596, 1.591, 1.591, 1.586, 1.586, 1.585, 1.585, 1.585, 1.586, 1.586, 1.587, 1.591, 1.591, 1.592, 1.592, 1.592, 1.591, 1.591, 1.586, 1.586, 1.585, 1.584, 1.583, 1.58, 1.579, 1.579, 1.578, 1.578, 1.579, 1.579, 1.583, 1.584, 1.585, 1.586, 1.591, 1.591, 1.596, 1.597, 1.597, 1.598, 1.598, 1.598, 1.597, 1.596, 1.596, 1.592, 1.591, 1.587, 1.586, 1.586, 1.585, 1.585, 1.585, 1.584, 1.583, 1.583, 1.583, 1.579, 1.578, 1.578, 1.577, 1.573, 1.573, 1.573, 1.573, 1.573, 1.573, 1.573, 1.573, 1.573, 1.573, 1.573, 1.573, 1.573, 1.576, 1.576, 1.576, 1.576, 1.576, 1.573, 1.572, 1.571, 1.571, 1.569, 1.569, 1.568, 1.564, 1.563, 1.563, 1.562, 1.561, 1.557, 1.557, 1.557, 1.556, 1.555, 1.555, 1.555, 1.555, 1.556, 1.557, 1.561, 1.562, 1.562, 1.563, 1.567, 1.567, 1.567, 1.564, 1.563, 1.562, 1.561, 1.557, 1.556, 1.555, 1.554, 1.553, 1.552, 1.552, 1.552, 1.552, 1.551, 1.551, 1.551, 1.551, 1.551, 1.551, 1.551, 1.551, 1.551, 1.551, 1.551, 1.551, 1.551, 1.551, 1.551, 1.551, 1.551, 1.548, 1.547, 1.547, 1.547, 1.546, 1.546, 1.546, 1.546, 1.545, 1.545, 1.544, 1.543, 1.543, 1.542, 1.538, 1.538, 1.537, 1.537, 1.537, 1.537, 1.537, 1.537, 1.538, 1.538, 1.539, 1.539, 1.538, 1.537, 1.537, 1.536, 1.535, 1.535, 1.535, 1.535, 1.535, 1.535, 1.535, 1.535, 1.535, 1.535, 1.536, 1.537, 1.537, 1.538, 1.539, 1.538, 1.538, 1.537, 1.537, 1.537, 1.536, 1.535, 1.534, 1.533, 1.532, 1.528, 1.527, 1.527, 1.526, 1.526, 1.526, 1.526, 1.527, 1.528, 1.532, 1.533, 1.534, 1.537, 1.537, 1.537, 1.537, 1.536, 1.535, 1.533, 1.532, 1.528, 1.524, 1.524, 1.522, 1.521, 1.52, 1.52, 1.521, 1.522, 1.523, 1.525, 1.526, 1.527, 1.527, 1.526, 1.524, 1.524, 1.522, 1.521, 1.52, 1.52, 1.521, 1.522, 1.523, 1.524, 1.525, 1.526, 1.527, 1.528, 1.528, 1.527, 1.526, 1.525, 1.524, 1.524, 1.523, 1.522, 1.521, 1.52, 1.52, 1.52, 1.52, 1.52, 1.52, 1.521, 1.522, 1.523, 1.524, 1.525, 1.525, 1.525, 1.525, 1.525, 1.525, 1.524, 1.524, 1.524, 1.524, 1.524, 1.524, 1.523, 1.522, 1.521, 1.52, 1.52, 1.519, 1.518, 1.518, 1.518, 1.519, 1.519, 1.52, 1.522
1.63, 1.631, 1.634, 1.635, 1.636, 1.64, 1.64, 1.64, 1.64, 1.64, 1.64, 1.635, 1.635, 1.63, 1.63, 1.625, 1.625, 1.621, 1.62, 1.62, 1.619, 1.619, 1.616, 1.615, 1.615, 1.614, 1.614, 1.614, 1.614, 1.614, 1.614, 1.614, 1.614, 1.615, 1.615, 1.616, 1.616, 1.616, 1.616, 1.616, 1.616, 1.615, 1.614, 1.614, 1.614, 1.611, 1.611, 1.61, 1.609, 1.608, 1.607, 1.607, 1.607, 1.607, 1.607, 1.607, 1.607, 1.607, 1.607, 1.607, 1.607, 1.607, 1.607, 1.607, 1.607, 1.607, 1.607, 1.604, 1.603, 1.603, 1.602, 1.602, 1.602, 1.602, 1.602, 1.602, 1.603, 1.603, 1.604, 1.607, 1.603, 1.603, 1.598, 1.597, 1.597, 1.596, 1.595, 1.592, 1.592, 1.592, 1.592, 1.596, 1.596, 1.597, 1.597, 1.597, 1.598, 1.598, 1.599, 1.599, 1.598, 1.598, 1.597, 1.597, 1.597, 1.596, 1.592, 1.592, 1.592, 1.592, 1.592, 1.592, 1.592, 1.592, 1.592, 1.592, 1.592, 1.592, 1.592, 1.595, 1.596, 1.596, 1.596, 1.597, 1.597, 1.597, 1.597, 1.597, 1.596, 1.596, 1.596, 1.596, 1.595, 1.595, 1.592, 1.592, 1.591, 1.591, 1.591, 1.59, 1.59, 1.59, 1.59, 1.59, 1.591, 1.592, 1.592, 1.592, 1.596, 1.597, 1.597, 1.598, 1.599, 1.598, 1.597, 1.597, 1.596, 1.591, 1.591, 1.587, 1.586, 1.585, 1.585, 1.585, 1.585, 1.586, 1.587, 1.59, 1.591, 1.592, 1.592, 1.592, 1.592, 1.591, 1.587, 1.586, 1.586, 1.585, 1.584, 1.583, 1.579, 1.579, 1.578, 1.578, 1.578, 1.579, 1.58, 1.583, 1.583, 1.586, 1.587, 1.592, 1.592, 1.596, 1.597, 1.597, 1.597, 1.597, 1.597, 1.596, 1.592, 1.592, 1.591, 1.587, 1.587, 1.586, 1.585, 1.585, 1.585, 1.584, 1.584, 1.583, 1.583, 1.579, 1.579, 1.578, 1.577, 1.573, 1.573, 1.573, 1.573, 1.573, 1.573, 1.573, 1.573, 1.573, 1.573, 1.573, 1.573, 1.573, 1.573, 1.573, 1.573, 1.576, 1.573, 1.573, 1.572, 1.571, 1.571, 1.569, 1.569, 1.568, 1.567, 1.564, 1.563, 1.562, 1.561, 1.56, 1.557, 1.557, 1.556, 1.556, 1.555, 1.555, 1.556, 1.556, 1.557, 1.561, 1.562, 1.563, 1.563, 1.567, 1.567, 1.567, 1.564, 1.563, 1.562, 1.561, 1.557, 1.556, 1.555, 1.554, 1.553, 1.552, 1.552, 1.552, 1.551, 1.551, 1.551, 1.551, 1.551, 1.551, 1.551, 1.551, 1.551, 1.551, 1.551, 1.551, 1.552, 1.552, 1.552, 1.552, 1.552, 1.551, 1.548, 1.548, 1.548, 1.548, 1.547, 1.547, 1.547, 1.546, 1.546, 1.545, 1.545, 1.544, 1.543, 1.542, 1.539, 1.538, 1.537, 1.537, 1.537, 1.537, 1.537, 1.538, 1.538, 1.539, 1.539, 1.539, 1.538, 1.537, 1.537, 1.536, 1.535, 1.535, 1.535, 1.535, 1.535, 1.535, 1.535, 1.535, 1.535, 1.535, 1.536, 1.537, 1.537, 1.538, 1.539, 1.539, 1.538, 1.538, 1.538, 1.537, 1.537, 1.536, 1.535, 1.534, 1.533, 1.532, 1.527, 1.526, 1.526, 1.525, 1.525, 1.526, 1.526, 1.527, 1.528, 1.533, 1.533, 1.537, 1.537, 1.537, 1.536, 1.535, 1.534, 1.533, 1.532, 1.528, 1.524, 1.523, 1.522, 1.521, 1.52, 1.52, 1.521, 1.522, 1.524, 1.525, 1.527, 1.527, 1.527, 1.526, 1.524, 1.524, 1.522, 1.521, 1.52, 1.52, 1.521, 1.522, 1.523, 1.524, 1.525, 1.526, 1.527, 1.528, 1.528, 1.527, 1.526, 1.526, 1.524, 1.524, 1.523, 1.522, 1.521, 1.52, 1.52, 1.52, 1.52, 1.52, 1.521, 1.522, 1.523, 1.524, 1.525, 1.525, 1.526, 1.526, 1.526, 1.526, 1.525, 1.525, 1.524, 1.524, 1.524, 1.524, 1.524, 1.523, 1.522, 1.52, 1.519, 1.518, 1.518, 1.517, 1.517, 1.517, 1.518, 1.519, 1.52, 1.521
1.63, 1.63, 1.634, 1.635, 1.635, 1.636, 1.64, 1.64, 1.64, 1.639, 1.635, 1.635, 1.635, 1.63, 1.63, 1.624, 1.624, 1.621, 1.62, 1.619, 1.619, 1.616, 1.616, 1.615, 1.614, 1.614, 1.614, 1.614, 1.614, 1.614, 1.614, 1.614, 1.614, 1.615, 1.616, 1.616, 1.616, 1.616, 1.616, 1.616, 1.616, 1.615, 1.615, 1.614, 1.614, 1.611, 1.61, 1.61, 1.609, 1.608, 1.607, 1.607, 1.607, 1.607, 1.607, 1.607, 1.607, 1.607, 1.607, 1.607, 1.607, 1.607, 1.607, 1.607, 1.607, 1.607, 1.607, 1.604, 1.603, 1.603, 1.602, 1.599, 1.599, 1.599, 1.602, 1.602, 1.603, 1.603, 1.604, 1.607, 1.603, 1.603, 1.602, 1.597, 1.597, 1.596, 1.595, 1.595, 1.595, 1.595, 1.596, 1.596, 1.597, 1.597, 1.598, 1.598, 1.599, 1.599, 1.599, 1.599, 1.598, 1.598, 1.597, 1.597, 1.597, 1.596, 1.592, 1.592, 1.592, 1.592, 1.592, 1.592, 1.592, 1.592, 1.592, 1.592, 1.592, 1.592, 1.592, 1.592, 1.592, 1.595, 1.596, 1.597, 1.597, 1.597, 1.597, 1.597, 1.597, 1.597, 1.597, 1.596, 1.596, 1.596, 1.596, 1.595, 1.592, 1.592, 1.592, 1.591, 1.591, 1.591, 1.59, 1.591, 1.591, 1.592, 1.592, 1.592, 1.596, 1.597, 1.597, 1.598, 1.598, 1.598, 1.597, 1.597, 1.596, 1.591, 1.591, 1.587, 1.586, 1.585, 1.585, 1.585, 1.585, 1.586, 1.587, 1.587, 1.591, 1.592, 1.592, 1.592, 1.592, 1.591, 1.591, 1.587, 1.586, 1.585, 1.584, 1.583, 1.58, 1.579, 1.579, 1.578, 1.578, 1.579, 1.579, 1.583, 1.584, 1.585, 1.586, 1.591, 1.591, 1.592, 1.596, 1.597, 1.597, 1.597, 1.596, 1.596, 1.592, 1.591, 1.591, 1.587, 1.587, 1.586, 1.586, 1.585, 1.585, 1.585, 1.585, 1.584, 1.583, 1.583, 1.579, 1.578, 1.577, 1.573, 1.573, 1.573, 1.573, 1.573, 1.573, 1.573, 1.573, 1.573, 1.572, 1.572, 1.572, 1.573, 1.573, 1.573, 1.573, 1.573, 1.573, 1.573, 1.572, 1.571, 1.571, 1.569, 1.569, 1.568, 1.567, 1.564, 1.563, 1.562, 1.561, 1.561, 1.557, 1.557, 1.557, 1.556, 1.556, 1.556, 1.556, 1.556, 1.56, 1.561, 1.562, 1.563, 1.564, 1.567, 1.567, 1.564, 1.564, 1.563, 1.562, 1.561, 1.557, 1.556, 1.555, 1.554, 1.553, 1.552, 1.552, 1.552, 1.552, 1.551, 1.551, 1.551, 1.551, 1.551, 1.551, 1.551, 1.551, 1.551, 1.551, 1.552, 1.552, 1.553, 1.553, 1.553, 1.552, 1.552, 1.552, 1.551, 1.548, 1.548, 1.548, 1.548, 1.547, 1.547, 1.547, 1.546, 1.545, 1.544, 1.543, 1.543, 1.539, 1.538, 1.538, 1.537, 1.537, 1.538, 1.538, 1.539, 1.539, 1.539, 1.539, 1.539, 1.538, 1.538, 1.537, 1.536, 1.536, 1.535, 1.535, 1.535, 1.535, 1.535, 1.535, 1.535, 1.535, 1.535, 1.536, 1.537, 1.537, 1.538, 1.539, 1.539, 1.539, 1.539, 1.538, 1.538, 1.537, 1.537, 1.536, 1.534, 1.533, 1.532, 1.527, 1.526, 1.525, 1.525, 1.524, 1.525, 1.526, 1.527, 1.528, 1.533, 1.533, 1.536, 1.536, 1.536, 1.536, 1.535, 1.534, 1.533, 1.532, 1.528, 1.524, 1.523, 1.522, 1.522, 1.521, 1.521, 1.522, 1.523, 1.524, 1.526, 1.527, 1.528, 1.527, 1.526, 1.524, 1.524, 1.522, 1.521, 1.52, 1.52, 1.521, 1.522, 1.523, 1.524, 1.525, 1.526, 1.527, 1.528, 1.528, 1.527, 1.526, 1.526, 1.525, 1.524, 1.523, 1.522, 1.522, 1.521, 1.521, 1.521, 1.521, 1.521, 1.521, 1.522, 1.523, 1.524, 1.525, 1.526, 1.527, 1.527, 1.527, 1.526, 1.525, 1.524, 1.524, 1.524, 1.524, 1.524, 1.523, 1.522, 1.521, 1.52, 1.518, 1.517, 1.517, 1.516, 1.516, 1.516, 1.517, 1.518, 1.519, 1.52
1.63, 1.63, 1.634, 1.634, 1.635, 1.635, 1.636, 1.639, 1.635, 1.635, 1.635, 1.635, 1.63, 1.63, 1.625, 1.625, 1.621, 1.621, 1.62, 1.616, 1.616, 1.616, 1.616, 1.615, 1.614, 1.614, 1.614, 1.614, 1.614, 1.614, 1.614, 1.614, 1.614, 1.615, 1.616, 1.616, 1.616, 1.616, 1.616, 1.616, 1.616, 1.615, 1.615, 1.614, 1.611, 1.61, 1.61, 1.609, 1.609, 1.608, 1.607, 1.607, 1.607, 1.607, 1.607, 1.607, 1.607, 1.607, 1.607, 1.607, 1.607, 1.607, 1.607, 1.607, 1.607, 1.607, 1.604, 1.604, 1.603, 1.603, 1.602, 1.599, 1.599, 1.599, 1.602, 1.602, 1.603, 1.603, 1.604, 1.607, 1.603, 1.603, 1.602, 1.598, 1.597, 1.596, 1.596, 1.595, 1.595, 1.596, 1.596, 1.597, 1.597, 1.598, 1.598, 1.599, 1.599, 1.599, 1.599, 1.599, 1.599, 1.598, 1.597, 1.597, 1.597, 1.596, 1.592, 1.592, 1.592, 1.592, 1.592, 1.591, 1.591, 1.591, 1.592, 1.592, 1.592, 1.592, 1.592, 1.592, 1.592, 1.595, 1.596, 1.597, 1.597, 1.597, 1.597, 1.597, 1.597, 1.597, 1.597, 1.597, 1.597, 1.597, 1.596, 1.596, 1.595, 1.592, 1.592, 1.592, 1.592, 1.591, 1.591, 1.591, 1.591, 1.592, 1.592, 1.592, 1.596, 1.596, 1.597, 1.597, 1.598, 1.598, 1.597, 1.597, 1.596, 1.591, 1.591, 1.587, 1.586, 1.585, 1.585, 1.585, 1.585, 1.586, 1.586, 1.587, 1.591, 1.591, 1.592, 1.592, 1.592, 1.592, 1.591, 1.587, 1.587, 1.586, 1.585, 1.584, 1.583, 1.579, 1.579, 1.578, 1.578, 1.578, 1.579, 1.58, 1.583, 1.584, 1.585, 1.586, 1.591, 1.591, 1.592, 1.596, 1.596, 1.597, 1.596, 1.596, 1.592, 1.591, 1.591, 1.587, 1.587, 1.587, 1.586, 1.586, 1.586, 1.586, 1.586, 1.585, 1.584, 1.583, 1.579, 1.578, 1.577, 1.573, 1.573, 1.573, 1.573, 1.573, 1.573, 1.573, 1.573, 1.572, 1.572, 1.571, 1.572, 1.572, 1.573, 1.573, 1.573, 1.573, 1.573, 1.573, 1.572, 1.571, 1.571, 1.569, 1.569, 1.568, 1.568, 1.564, 1.564, 1.563, 1.562, 1.561, 1.56, 1.557, 1.557, 1.557, 1.557, 1.557, 1.557, 1.557, 1.561, 1.562, 1.563, 1.563, 1.567, 1.567, 1.567, 1.564, 1.563, 1.562, 1.562, 1.561, 1.557, 1.556, 1.555, 1.554, 1.553, 1.553, 1.553, 1.552, 1.552, 1.551, 1.551, 1.551, 1.551, 1.551, 1.551, 1.551, 1.551, 1.551, 1.551, 1.552, 1.553, 1.553, 1.553, 1.553, 1.553, 1.553, 1.552, 1.552, 1.552, 1.551, 1.548, 1.548, 1.548, 1.548, 1.547, 1.546, 1.546, 1.545, 1.544, 1.543, 1.539, 1.539, 1.538, 1.538, 1.538, 1.538, 1.539, 1.539, 1.539, 1.542, 1.539, 1.539, 1.539, 1.538, 1.537, 1.537, 1.536, 1.536, 1.535, 1.535, 1.535, 1.535, 1.535, 1.535, 1.535, 1.535, 1.536, 1.537, 1.537, 1.538, 1.538, 1.539, 1.539, 1.539, 1.539, 1.539, 1.538, 1.537, 1.536, 1.535, 1.533, 1.532, 1.527, 1.526, 1.525, 1.524, 1.524, 1.524, 1.525, 1.526, 1.527, 1.532, 1.533, 1.535, 1.535, 1.535, 1.535, 1.534, 1.533, 1.533, 1.528, 1.528, 1.524, 1.524, 1.523, 1.522, 1.522, 1.522, 1.522, 1.523, 1.524, 1.526, 1.527, 1.528, 1.527, 1.526, 1.524, 1.524, 1.522, 1.521, 1.52, 1.52, 1.521, 1.522, 1.523, 1.524, 1.525, 1.526, 1.527, 1.528, 1.528, 1.527, 1.526, 1.526, 1.525, 1.524, 1.524, 1.522, 1.522, 1.522, 1.522, 1.522, 1.522, 1.522, 1.522, 1.523, 1.524, 1.525, 1.526, 1.527, 1.528, 1.528, 1.527, 1.526, 1.525, 1.524, 1.524, 1.524, 1.524, 1.524, 1.523, 1.522, 1.521, 1.52, 1.517, 1.517, 1.516, 1.513, 1.513, 1.513, 1.516, 1.517, 1.518, 1.52
1.629, 1.63, 1.631, 1.634, 1.634, 1.635, 1.635, 1.635, 1.635, 1.635, 1.634, 1.63, 1.63, 1.625, 1.625, 1.621, 1.621, 1.62, 1.62, 1.616, 1.616, 1.616, 1.616, 1.615, 1.614, 1.614, 1.614, 1.611, 1.611, 1.614, 1.614, 1.614, 1.615, 1.615, 1.616, 1.616, 1.616, 1.616, 1.616, 1.616, 1.616, 1.615, 1.615, 1.614, 1.611, 1.61, 1.609, 1.609, 1.609, 1.608, 1.607, 1.607, 1.607, 1.607, 1.608, 1.608, 1.608, 1.607, 1.607, 1.607, 1.607, 1.607, 1.607, 1.607, 1.607, 1.607, 1.604, 1.604, 1.603, 1.603, 1.602, 1.599, 1.599, 1.599, 1.602, 1.602, 1.603, 1.603, 1.604, 1.607, 1.604, 1.603, 1.602, 1.598, 1.597, 1.597, 1.596, 1.596, 1.596, 1.596, 1.597, 1.597, 1.598, 1.598, 1.599, 1.599, 1.599, 1.602, 1.599, 1.599, 1.599, 1.598, 1.597, 1.597, 1.597, 1.596, 1.592, 1.592, 1.592, 1.592, 1.592, 1.591, 1.591, 1.591, 1.591, 1.591, 1.591, 1.592, 1.592, 1.592, 1.592, 1.595, 1.596, 1.596, 1.597, 1.597, 1.597, 1.597, 1.597, 1.597, 1.597, 1.597, 1.597, 1.597, 1.597, 1.596, 1.596, 1.595, 1.592, 1.592, 1.592, 1.592, 1.591, 1.591, 1.591, 1.592, 1.592, 1.592, 1.595, 1.596, 1.597, 1.597, 1.598, 1.598, 1.597, 1.597, 1.596, 1.591, 1.591, 1.587, 1.586, 1.585, 1.585, 1.585, 1.585, 1.585, 1.586, 1.587, 1.587, 1.591, 1.592, 1.592, 1.592, 1.592, 1.591, 1.59, 1.59, 1.586, 1.585, 1.584, 1.583, 1.58, 1.579, 1.578, 1.578, 1.578, 1.579, 1.579, 1.58, 1.583, 1.584, 1.586, 1.587, 1.591, 1.592, 1.592, 1.596, 1.596, 1.596, 1.592, 1.592, 1.591, 1.587, 1.587, 1.587, 1.587, 1.587, 1.587, 1.587, 1.587, 1.587, 1.586, 1.585, 1.584, 1.579, 1.579, 1.578, 1.577, 1.573, 1.573, 1.573, 1.573, 1.573, 1.573, 1.572, 1.572, 1.571, 1.571, 1.571, 1.571, 1.572, 1.572, 1.573, 1.573, 1.573, 1.573, 1.572, 1.571, 1.571, 1.57, 1.569, 1.568, 1.568, 1.567, 1.564, 1.563, 1.562, 1.561, 1.561, 1.56, 1.56, 1.56, 1.56, 1.557, 1.557, 1.561, 1.562, 1.562, 1.563, 1.564, 1.567, 1.567, 1.567, 1.564, 1.563, 1.562, 1.561, 1.561, 1.557, 1.556, 1.555, 1.554, 1.553, 1.553, 1.553, 1.553, 1.552, 1.552, 1.551, 1.551, 1.551, 1.551, 1.551, 1.551, 1.551, 1.551, 1.552, 1.552, 1.553, 1.553, 1.554, 1.554, 1.554, 1.553, 1.553, 1.553, 1.552, 1.552, 1.551, 1.548, 1.548, 1.548, 1.547, 1.547, 1.546, 1.545, 1.544, 1.543, 1.542, 1.539, 1.539, 1.539, 1.539, 1.539, 1.539, 1.539, 1.542, 1.542, 1.542, 1.539, 1.539, 1.538, 1.538, 1.537, 1.537, 1.536, 1.536, 1.536, 1.535, 1.535, 1.535, 1.535, 1.535, 1.535, 1.536, 1.537, 1.537, 1.537, 1.538, 1.539, 1.539, 1.539, 1.539, 1.539, 1.538, 1.537, 1.536, 1.535, 1.533, 1.532, 1.528, 1.525, 1.524, 1.524, 1.524, 1.524, 1.525, 1.526, 1.527, 1.532, 1.533, 1.534, 1.534, 1.534, 1.534, 1.533, 1.533, 1.532, 1.528, 1.527, 1.524, 1.524, 1.523, 1.523, 1.523, 1.523, 1.523, 1.524, 1.525, 1.526, 1.527, 1.528, 1.527, 1.526, 1.524, 1.524, 1.522, 1.521, 1.52, 1.52, 1.521, 1.522, 1.523, 1.524, 1.525, 1.526, 1.527, 1.528, 1.528, 1.527, 1.526, 1.526, 1.525, 1.524, 1.524, 1.523, 1.522, 1.522, 1.522, 1.522, 1.522, 1.523, 1.523, 1.524, 1.525, 1.526, 1.527, 1.528, 1.528, 1.528, 1.527, 1.526, 1.525, 1.524, 1.524, 1.524, 1.524, 1.524, 1.523, 1.522, 1.52, 1.52, 1.516, 1.516, 1.513, 1.513, 1.513, 1.513, 1.513, 1.517, 1.518, 1.519
1.629, 1.63, 1.63, 1.63, 1.631, 1.631, 1.635, 1.635, 1.63, 1.63, 1.63, 1.63, 1.625, 1.625, 1.624, 1.621, 1.62, 1.62, 1.619, 1.616, 1.616, 1.616, 1.615, 1.615, 1.614, 1.614, 1.611, 1.611, 1.611, 1.611, 1.614, 1.614, 1.614, 1.615, 1.616, 1.616, 1.616, 1.616, 1.616, 1.616, 1.616, 1.615, 1.615, 1.614, 1.61, 1.61, 1.609, 1.609, 1.608, 1.608, 1.607, 1.608, 1.608, 1.608, 1.609, 1.609, 1.609, 1.608, 1.608, 1.608, 1.608, 1.608, 1.607, 1.607, 1.607, 1.607, 1.607, 1.604, 1.604, 1.603, 1.602, 1.602, 1.599, 1.599, 1.602, 1.602, 1.603, 1.603, 1.607, 1.607, 1.604, 1.603, 1.603, 1.598, 1.597, 1.597, 1.597, 1.597, 1.597, 1.597, 1.597, 1.597, 1.598, 1.599, 1.602, 1.602, 1.602, 1.602, 1.602, 1.602, 1.599, 1.598, 1.598, 1.598, 1.597, 1.597, 1.596, 1.592, 1.592, 1.592, 1.592, 1.592, 1.591, 1.591, 1.591, 1.591, 1.591, 1.591, 1.592, 1.592, 1.592, 1.592, 1.596, 1.597, 1.597, 1.597, 1.598, 1.598, 1.598, 1.598, 1.598, 1.598, 1.598, 1.597, 1.597, 1.597, 1.596, 1.596, 1.592, 1.592, 1.592, 1.592, 1.591, 1.591, 1.591, 1.591, 1.592, 1.592, 1.592, 1.596, 1.596, 1.597, 1.597, 1.597, 1.597, 1.596, 1.596, 1.591, 1.591, 1.587, 1.586, 1.585, 1.584, 1.584, 1.584, 1.585, 1.585, 1.586, 1.587, 1.591, 1.591, 1.592, 1.592, 1.592, 1.591, 1.591, 1.59, 1.587, 1.586, 1.585, 1.584, 1.58, 1.579, 1.579, 1.578, 1.578, 1.578, 1.579, 1.58, 1.58, 1.584, 1.585, 1.586, 1.587, 1.592, 1.592, 1.592, 1.596, 1.592, 1.592, 1.591, 1.591, 1.587, 1.587, 1.586, 1.586, 1.587, 1.587, 1.587, 1.587, 1.587, 1.586, 1.585, 1.584, 1.583, 1.579, 1.578, 1.577, 1.573, 1.573, 1.573, 1.573, 1.573, 1.572, 1.572, 1.571, 1.571, 1.571, 1.571, 1.571, 1.571, 1.572, 1.572, 1.572, 1.573, 1.573, 1.572, 1.571, 1.571, 1.57, 1.569, 1.569, 1.568, 1.567, 1.564, 1.563, 1.563, 1.562, 1.561, 1.56, 1.56, 1.56, 1.56, 1.561, 1.561, 1.562, 1.562, 1.563, 1.564, 1.567, 1.567, 1.567, 1.567, 1.564, 1.563, 1.562, 1.561, 1.56, 1.557, 1.556, 1.555, 1.554, 1.553, 1.553, 1.553, 1.553, 1.553, 1.552, 1.551, 1.551, 1.551, 1.551, 1.551, 1.551, 1.551, 1.551, 1.552, 1.553, 1.553, 1.553, 1.554, 1.555, 1.554, 1.554, 1.553, 1.553, 1.553, 1.552, 1.551, 1.551, 1.548, 1.548, 1.548, 1.547, 1.546, 1.546, 1.544, 1.543, 1.543, 1.539, 1.539, 1.539, 1.539, 1.539, 1.542, 1.542, 1.542, 1.542, 1.542, 1.542, 1.539, 1.539, 1.538, 1.538, 1.538, 1.537, 1.537, 1.536, 1.536, 1.536, 1.535, 1.535, 1.535, 1.535, 1.536, 1.537, 1.537, 1.537, 1.538, 1.539, 1.539, 1.539, 1.539, 1.539, 1.538, 1.537, 1.536, 1.535, 1.534, 1.528, 1.528, 1.524, 1.524, 1.524, 1.524, 1.524, 1.525, 1.526, 1.527, 1.532, 1.533, 1.533, 1.533, 1.533, 1.533, 1.533, 1.532, 1.528, 1.527, 1.526, 1.525, 1.524, 1.524, 1.524, 1.524, 1.524, 1.524, 1.524, 1.526, 1.527, 1.528, 1.528, 1.527, 1.526, 1.525, 1.524, 1.522, 1.521, 1.521, 1.521, 1.521, 1.522, 1.524, 1.524, 1.526, 1.527, 1.528, 1.528, 1.528, 1.528, 1.527, 1.526, 1.525, 1.524, 1.524, 1.523, 1.523, 1.523, 1.523, 1.523, 1.523, 1.524, 1.524, 1.525, 1.526, 1.527, 1.528, 1.528, 1.528, 1.528, 1.527, 1.526, 1.525, 1.524, 1.524, 1.524, 1.524, 1.523, 1.522, 1.521, 1.52, 1.518, 1.517, 1.513, 1.512, 1.512, 1.512, 1.512, 1.512, 1.516, 1.517, 1.518
1.629, 1.629, 1.629, 1.63, 1.63, 1.63, 1.63, 1.63, 1.63, 1.63, 1.63, 1.625, 1.625, 1.624, 1.621, 1.621, 1.62, 1.619, 1.616, 1.616, 1.616, 1.616, 1.615, 1.615, 1.614, 1.614, 1.611, 1.611, 1.611, 1.611, 1.611, 1.614, 1.614, 1.615, 1.616, 1.616, 1.619, 1.619, 1.619, 1.616, 1.616, 1.615, 1.615, 1.611, 1.61, 1.609, 1.609, 1.608, 1.608, 1.608, 1.608, 1.608, 1.609, 1.609, 1.609, 1.609, 1.609, 1.609, 1.609, 1.609, 1.609, 1.608, 1.608, 1.608, 1.608, 1.607, 1.607, 1.604, 1.604, 1.603, 1.602, 1.602, 1.602, 1.602, 1.602, 1.602, 1.603, 1.604, 1.607, 1.607, 1.607, 1.603, 1.603, 1.598, 1.598, 1.597, 1.597, 1.597, 1.597, 1.597, 1.597, 1.598, 1.598, 1.602, 1.602, 1.602, 1.602, 1.602, 1.602, 1.602, 1.602, 1.602, 1.602, 1.598, 1.598, 1.597, 1.596, 1.596, 1.595, 1.592, 1.592, 1.592, 1.592, 1.591, 1.591, 1.59, 1.59, 1.591, 1.591, 1.592, 1.592, 1.592, 1.596, 1.597, 1.597, 1.597, 1.598, 1.599, 1.599, 1.599, 1.599, 1.599, 1.598, 1.598, 1.597, 1.597, 1.597, 1.596, 1.595, 1.592, 1.592, 1.592, 1.591, 1.59, 1.59, 1.591, 1.591, 1.592, 1.592, 1.595, 1.596, 1.596, 1.597, 1.597, 1.596, 1.596, 1.592, 1.591, 1.591, 1.586, 1.585, 1.585, 1.584, 1.583, 1.583, 1.584, 1.584, 1.585, 1.586, 1.587, 1.591, 1.592, 1.592, 1.592, 1.592, 1.591, 1.591, 1.587, 1.586, 1.585, 1.584, 1.583, 1.58, 1.579, 1.578, 1.578, 1.578, 1.579, 1.58, 1.58, 1.583, 1.584, 1.585, 1.586, 1.591, 1.591, 1.592, 1.592, 1.592, 1.591, 1.591, 1.587, 1.587, 1.587, 1.586, 1.586, 1.587, 1.587, 1.587, 1.587, 1.587, 1.587, 1.586, 1.585, 1.584, 1.579, 1.578, 1.577, 1.573, 1.573, 1.573, 1.573, 1.573, 1.572, 1.571, 1.571, 1.571, 1.571, 1.571, 1.571, 1.571, 1.571, 1.571, 1.572, 1.573, 1.573, 1.572, 1.571, 1.571, 1.57, 1.569, 1.569, 1.568, 1.567, 1.567, 1.564, 1.563, 1.562, 1.562, 1.561, 1.561, 1.561, 1.561, 1.562, 1.562, 1.563, 1.563, 1.564, 1.568, 1.568, 1.568, 1.567, 1.567, 1.564, 1.563, 1.562, 1.561, 1.56, 1.557, 1.556, 1.555, 1.554, 1.553, 1.553, 1.553, 1.553, 1.553, 1.552, 1.551, 1.551, 1.551, 1.551, 1.551, 1.551, 1.551, 1.551, 1.552, 1.553, 1.553, 1.553, 1.554, 1.555, 1.555, 1.554, 1.554, 1.553, 1.553, 1.552, 1.551, 1.551, 1.551, 1.548, 1.548, 1.547, 1.547, 1.546, 1.545, 1.544, 1.543, 1.542, 1.542, 1.542, 1.542, 1.542, 1.543, 1.543, 1.543, 1.543, 1.543, 1.543, 1.542, 1.542, 1.539, 1.539, 1.538, 1.538, 1.538, 1.537, 1.537, 1.537, 1.536, 1.536, 1.535, 1.535, 1.536, 1.537, 1.537, 1.537, 1.538, 1.539, 1.539, 1.539, 1.539, 1.539, 1.538, 1.537, 1.537, 1.534, 1.533, 1.528, 1.527, 1.524, 1.524, 1.524, 1.524, 1.524, 1.525, 1.526, 1.527, 1.532, 1.532, 1.533, 1.533, 1.532, 1.532, 1.532, 1.528, 1.528, 1.527, 1.526, 1.525, 1.524, 1.524, 1.524, 1.524, 1.524, 1.524, 1.525, 1.526, 1.527, 1.528, 1.528, 1.528, 1.527, 1.524, 1.524, 1.523, 1.522, 1.522, 1.522, 1.522, 1.523, 1.524, 1.525, 1.526, 1.527, 1.528, 1.528, 1.528, 1.528, 1.527, 1.526, 1.525, 1.524, 1.524, 1.524, 1.524, 1.524, 1.524, 1.524, 1.524, 1.524, 1.525, 1.526, 1.527, 1.528, 1.528, 1.528, 1.528, 1.528, 1.527, 1.526, 1.525, 1.524, 1.524, 1.524, 1.523, 1.523, 1.522, 1.52, 1.52, 1.517, 1.516, 1.512, 1.512, 1.511, 1.511, 1.511, 1.511, 1.516, 1.517, 1.518
1.626, 1.629, 1.629, 1.629, 1.629, 1.63, 1.63, 1.63, 1.626, 1.625, 1.625, 1.625, 1.624, 1.621, 1.621, 1.62, 1.62, 1.619, 1.616, 1.616, 1.616, 1.616, 1.615, 1.615, 1.614, 1.614, 1.611, 1.611, 1.611, 1.611, 1.611, 1.611, 1.614, 1.615, 1.616, 1.616, 1.619, 1.619, 1.619, 1.619, 1.616, 1.615, 1.615, 1.61, 1.61, 1.609, 1.608, 1.608, 1.607, 1.607, 1.608, 1.609, 1.609, 1.61, 1.61, 1.61, 1.61, 1.61, 1.61, 1.609, 1.609, 1.609, 1.609, 1.609, 1.608, 1.608, 1.607, 1.607, 1.604, 1.603, 1.602, 1.602, 1.602, 1.602, 1.602, 1.603, 1.603, 1.604, 1.607, 1.607, 1.607, 1.603, 1.603, 1.599, 1.598, 1.597, 1.597, 1.597, 1.597, 1.597, 1.598, 1.598, 1.602, 1.602, 1.602, 1.602, 1.602, 1.602, 1.602, 1.602, 1.602, 1.602, 1.602, 1.602, 1.598, 1.598, 1.597, 1.596, 1.596, 1.592, 1.592, 1.592, 1.592, 1.591, 1.59, 1.59, 1.59, 1.59, 1.591, 1.591, 1.592, 1.592, 1.596, 1.596, 1.597, 1.597, 1.598, 1.599, 1.599, 1.599, 1.599, 1.599, 1.599, 1.598, 1.598, 1.597, 1.597, 1.596, 1.596, 1.592, 1.592, 1.592, 1.591, 1.59, 1.59, 1.59, 1.591, 1.591, 1.592, 1.592, 1.595, 1.596, 1.596, 1.596, 1.596, 1.595, 1.592, 1.592, 1.587, 1.586, 1.585, 1.584, 1.583, 1.583, 1.583, 1.583, 1.584, 1.585, 1.586, 1.587, 1.591, 1.592, 1.592, 1.592, 1.592, 1.592, 1.591, 1.591, 1.587, 1.586, 1.583, 1.583, 1.58, 1.579, 1.579, 1.578, 1.578, 1.579, 1.58, 1.58, 1.583, 1.584, 1.585, 1.586, 1.587, 1.591, 1.591, 1.591, 1.591, 1.591, 1.59, 1.587, 1.587, 1.587, 1.586, 1.586, 1.587, 1.587, 1.587, 1.587, 1.587, 1.587, 1.586, 1.585, 1.584, 1.579, 1.578, 1.577, 1.577, 1.573, 1.573, 1.573, 1.572, 1.572, 1.571, 1.571, 1.571, 1.571, 1.571, 1.571, 1.571, 1.571, 1.571, 1.572, 1.573, 1.573, 1.573, 1.572, 1.571, 1.57, 1.569, 1.569, 1.568, 1.567, 1.567, 1.564, 1.563, 1.563, 1.562, 1.562, 1.562, 1.562, 1.562, 1.563, 1.563, 1.563, 1.564, 1.568, 1.568, 1.568, 1.568, 1.567, 1.567, 1.564, 1.563, 1.562, 1.561, 1.56, 1.556, 1.556, 1.555, 1.554, 1.554, 1.553, 1.553, 1.553, 1.553, 1.552, 1.551, 1.551, 1.551, 1.551, 1.551, 1.551, 1.551, 1.551, 1.552, 1.553, 1.553, 1.554, 1.554, 1.555, 1.555, 1.555, 1.554, 1.553, 1.553, 1.553, 1.552, 1.551, 1.551, 1.548, 1.548, 1.548, 1.547, 1.546, 1.545, 1.544, 1.544, 1.543, 1.542, 1.542, 1.543, 1.543, 1.543, 1.544, 1.544, 1.544, 1.544, 1.543, 1.543, 1.543, 1.543, 1.542, 1.542, 1.539, 1.538, 1.538, 1.538, 1.537, 1.537, 1.536, 1.536, 1.535, 1.536, 1.537, 1.537, 1.537, 1.538, 1.539, 1.539, 1.539, 1.539, 1.539, 1.538, 1.537, 1.537, 1.533, 1.533, 1.527, 1.526, 1.525, 1.524, 1.524, 1.524, 1.524, 1.525, 1.526, 1.527, 1.532, 1.532, 1.533, 1.532, 1.532, 1.531, 1.528, 1.528, 1.527, 1.527, 1.526, 1.525, 1.524, 1.524, 1.524, 1.524, 1.524, 1.525, 1.526, 1.527, 1.527, 1.528, 1.528, 1.528, 1.528, 1.524, 1.524, 1.523, 1.523, 1.522, 1.522, 1.523, 1.523, 1.524, 1.526, 1.527, 1.528, 1.528, 1.528, 1.528, 1.528, 1.527, 1.526, 1.525, 1.524, 1.524, 1.524, 1.524, 1.524, 1.524, 1.524, 1.525, 1.525, 1.526, 1.527, 1.528, 1.531, 1.531, 1.528, 1.528, 1.527, 1.526, 1.526, 1.525, 1.524, 1.524, 1.524, 1.523, 1.522, 1.521, 1.52, 1.519, 1.516, 1.512, 1.512, 1.511, 1.511, 1.511, 1.511, 1.512, 1.512, 1.517, 1.518
1.626, 1.626, 1.626, 1.626, 1.629, 1.629, 1.625, 1.625, 1.625, 1.625, 1.625, 1.62, 1.62, 1.62, 1.62, 1.62, 1.619, 1.619, 1.619, 1.616, 1.616, 1.616, 1.615, 1.615, 1.614, 1.614, 1.611, 1.611, 1.611, 1.611, 1.611, 1.611, 1.614, 1.615, 1.615, 1.616, 1.619, 1.619, 1.619, 1.616, 1.616, 1.615, 1.615, 1.61, 1.609, 1.608, 1.608, 1.607, 1.607, 1.607, 1.608, 1.609, 1.61, 1.61, 1.611, 1.611, 1.611, 1.611, 1.61, 1.609, 1.609, 1.609, 1.609, 1.609, 1.609, 1.608, 1.608, 1.607, 1.604, 1.604, 1.603, 1.602, 1.602, 1.602, 1.602, 1.603, 1.603, 1.607, 1.607, 1.607, 1.607, 1.603, 1.603, 1.599, 1.598, 1.597, 1.597, 1.597, 1.597, 1.598, 1.598, 1.599, 1.602, 1.602, 1.602, 1.602, 1.602, 1.602, 1.602, 1.602, 1.602, 1.602, 1.602, 1.602, 1.602, 1.598, 1.597, 1.597, 1.596, 1.596, 1.592, 1.592, 1.592, 1.591, 1.59, 1.59, 1.59, 1.59, 1.59, 1.591, 1.592, 1.592, 1.595, 1.596, 1.597, 1.597, 1.598, 1.599, 1.599, 1.599, 1.599, 1.599, 1.599, 1.599, 1.598, 1.597, 1.597, 1.597, 1.596, 1.592, 1.592, 1.591, 1.591, 1.59, 1.59, 1.59, 1.59, 1.591, 1.591, 1.592, 1.592, 1.595, 1.596, 1.596, 1.595, 1.592, 1.592, 1.591, 1.587, 1.586, 1.585, 1.584, 1.583, 1.583, 1.583, 1.583, 1.584, 1.584, 1.585, 1.586, 1.591, 1.591, 1.592, 1.592, 1.592, 1.592, 1.592, 1.591, 1.587, 1.586, 1.585, 1.584, 1.58, 1.58, 1.579, 1.579, 1.579, 1.579, 1.58, 1.58, 1.583, 1.583, 1.584, 1.585, 1.586, 1.587, 1.591, 1.591, 1.591, 1.59, 1.587, 1.587, 1.587, 1.587, 1.586, 1.586, 1.587, 1.587, 1.587, 1.59, 1.59, 1.59, 1.587, 1.587, 1.584, 1.583, 1.578, 1.578, 1.577, 1.573, 1.573, 1.573, 1.572, 1.571, 1.571, 1.571, 1.571, 1.571, 1.571, 1.571, 1.571, 1.571, 1.571, 1.572, 1.573, 1.573, 1.573, 1.572, 1.571, 1.571, 1.57, 1.569, 1.568, 1.568, 1.567, 1.567, 1.564, 1.563, 1.563, 1.563, 1.562, 1.563, 1.563, 1.563, 1.564, 1.567, 1.568, 1.568, 1.569, 1.569, 1.568, 1.568, 1.567, 1.563, 1.562, 1.562, 1.561, 1.56, 1.557, 1.556, 1.555, 1.555, 1.554, 1.554, 1.553, 1.553, 1.553, 1.552, 1.551, 1.551, 1.551, 1.551, 1.551, 1.551, 1.551, 1.551, 1.552, 1.553, 1.553, 1.554, 1.555, 1.555, 1.555, 1.555, 1.555, 1.554, 1.553, 1.553, 1.552, 1.551, 1.551, 1.548, 1.548, 1.548, 1.547, 1.546, 1.546, 1.545, 1.544, 1.543, 1.543, 1.543, 1.543, 1.544, 1.544, 1.544, 1.544, 1.544, 1.544, 1.544, 1.544, 1.544, 1.543, 1.543, 1.543, 1.542, 1.539, 1.539, 1.538, 1.538, 1.537, 1.537, 1.536, 1.536, 1.536, 1.537, 1.537, 1.537, 1.538, 1.539, 1.539, 1.539, 1.539, 1.539, 1.538, 1.537, 1.536, 1.533, 1.532, 1.528, 1.525, 1.524, 1.524, 1.524, 1.524, 1.524, 1.525, 1.526, 1.527, 1.531, 1.532, 1.532, 1.532, 1.531, 1.528, 1.528, 1.527, 1.527, 1.526, 1.526, 1.525, 1.525, 1.525, 1.525, 1.525, 1.525, 1.526, 1.526, 1.527, 1.528, 1.528, 1.528, 1.528, 1.528, 1.525, 1.524, 1.524, 1.524, 1.523, 1.523, 1.524, 1.524, 1.525, 1.526, 1.527, 1.528, 1.528, 1.528, 1.528, 1.527, 1.526, 1.526, 1.525, 1.524, 1.524, 1.524, 1.524, 1.524, 1.525, 1.525, 1.526, 1.526, 1.527, 1.528, 1.531, 1.531, 1.531, 1.531, 1.528, 1.527, 1.526, 1.525, 1.524, 1.524, 1.524, 1.524, 1.523, 1.522, 1.52, 1.519, 1.518, 1.517, 1.512, 1.511, 1.511, 1.511, 1.511, 1.511, 1.511, 1.512, 1.517, 1.518
1.626, 1.626, 1.626, 1.626, 1.625, 1.625, 1.625, 1.625, 1.625, 1.621, 1.62, 1.62, 1.62, 1.62, 1.619, 1.619, 1.619, 1.619, 1.619, 1.619, 1.616, 1.616, 1.615, 1.615, 1.614, 1.614, 1.611, 1.611, 1.611, 1.611, 1.611, 1.611, 1.614, 1.615, 1.615, 1.616, 1.619, 1.619, 1.619, 1.616, 1.616, 1.615, 1.61, 1.61, 1.609, 1.608, 1.607, 1.607, 1.607, 1.607, 1.608, 1.609, 1.61, 1.611, 1.611, 1.611, 1.611, 1.611, 1.61, 1.61, 1.609, 1.609, 1.609, 1.609, 1.609, 1.609, 1.608, 1.607, 1.607, 1.604, 1.603, 1.603, 1.602, 1.602, 1.603, 1.603, 1.604, 1.607, 1.607, 1.607, 1.607, 1.603, 1.603, 1.602, 1.598, 1.598, 1.597, 1.597, 1.598, 1.598, 1.599, 1.602, 1.602, 1.602, 1.602, 1.603, 1.603, 1.603, 1.603, 1.603, 1.603, 1.603, 1.603, 1.603, 1.602, 1.602, 1.598, 1.597, 1.597, 1.596, 1.595, 1.592, 1.592, 1.591, 1.59, 1.59, 1.59, 1.59, 1.59, 1.591, 1.591, 1.592, 1.592, 1.596, 1.597, 1.597, 1.598, 1.599, 1.599, 1.599, 1.599, 1.599, 1.599, 1.599, 1.598, 1.598, 1.597, 1.597, 1.596, 1.595, 1.592, 1.591, 1.591, 1.59, 1.59, 1.59, 1.59, 1.59, 1.591, 1.591, 1.592, 1.592, 1.592, 1.592, 1.592, 1.592, 1.591, 1.591, 1.587, 1.586, 1.585, 1.584, 1.583, 1.583, 1.583, 1.583, 1.583, 1.584, 1.585, 1.586, 1.591, 1.591, 1.592, 1.595, 1.592, 1.592, 1.592, 1.591, 1.591, 1.586, 1.585, 1.584, 1.583, 1.58, 1.58, 1.58, 1.58, 1.58, 1.58, 1.58, 1.583, 1.583, 1.584, 1.585, 1.586, 1.586, 1.587, 1.587, 1.587, 1.587, 1.587, 1.587, 1.587, 1.587, 1.587, 1.587, 1.587, 1.587, 1.59, 1.59, 1.59, 1.59, 1.587, 1.586, 1.585, 1.584, 1.579, 1.578, 1.577, 1.576, 1.573, 1.573, 1.572, 1.571, 1.571, 1.571, 1.571, 1.571, 1.571, 1.571, 1.571, 1.571, 1.571, 1.572, 1.573, 1.573, 1.573, 1.572, 1.571, 1.571, 1.57, 1.569, 1.569, 1.568, 1.567, 1.567, 1.564, 1.564, 1.564, 1.563, 1.563, 1.564, 1.564, 1.564, 1.567, 1.568, 1.568, 1.569, 1.569, 1.569, 1.569, 1.568, 1.567, 1.563, 1.562, 1.562, 1.561, 1.56, 1.557, 1.556, 1.556, 1.555, 1.555, 1.554, 1.554, 1.554, 1.553, 1.552, 1.552, 1.551, 1.551, 1.551, 1.551, 1.551, 1.551, 1.551, 1.552, 1.553, 1.553, 1.554, 1.555, 1.555, 1.555, 1.555, 1.555, 1.554, 1.554, 1.553, 1.552, 1.551, 1.551, 1.548, 1.548, 1.548, 1.547, 1.547, 1.546, 1.545, 1.545, 1.544, 1.544, 1.544, 1.544, 1.544, 1.545, 1.545, 1.545, 1.545, 1.545, 1.545, 1.545, 1.544, 1.544, 1.544, 1.543, 1.543, 1.543, 1.542, 1.539, 1.538, 1.538, 1.537, 1.537, 1.537, 1.537, 1.537, 1.537, 1.537, 1.538, 1.539, 1.539, 1.539, 1.539, 1.539, 1.538, 1.537, 1.535, 1.533, 1.532, 1.528, 1.524, 1.524, 1.523, 1.523, 1.523, 1.524, 1.525, 1.526, 1.527, 1.531, 1.532, 1.532, 1.532, 1.528, 1.528, 1.527, 1.527, 1.526, 1.526, 1.526, 1.526, 1.526, 1.526, 1.526, 1.526, 1.526, 1.527, 1.527, 1.528, 1.528, 1.528, 1.531, 1.528, 1.527, 1.526, 1.525, 1.524, 1.524, 1.524, 1.524, 1.524, 1.524, 1.525, 1.526, 1.527, 1.528, 1.528, 1.528, 1.528, 1.527, 1.526, 1.526, 1.525, 1.525, 1.525, 1.525, 1.525, 1.525, 1.525, 1.526, 1.527, 1.527, 1.528, 1.531, 1.531, 1.531, 1.531, 1.528, 1.528, 1.527, 1.526, 1.525, 1.524, 1.524, 1.524, 1.523, 1.522, 1.521, 1.52, 1.519, 1.517, 1.512, 1.512, 1.511, 1.51, 1.51, 1.51, 1.511, 1.511, 1.512, 1.517, 1.518
1.626, 1.625, 1.625, 1.625, 1.625, 1.625, 1.624, 1.621, 1.62, 1.62, 1.62, 1.619, 1.619, 1.619, 1.619, 1.616, 1.616, 1.619, 1.619, 1.619, 1.616, 1.616, 1.615, 1.615, 1.614, 1.614, 1.611, 1.611, 1.611, 1.611, 1.611, 1.611, 1.611, 1.615, 1.615, 1.616, 1.619, 1.619, 1.619, 1.616, 1.616, 1.615, 1.61, 1.609, 1.609, 1.608, 1.607, 1.607, 1.607, 1.608, 1.609, 1.609, 1.61, 1.611, 1.611, 1.611, 1.611, 1.611, 1.611, 1.61, 1.609, 1.609, 1.609, 1.609, 1.609, 1.609, 1.608, 1.608, 1.607, 1.604, 1.604, 1.603, 1.602, 1.602, 1.603, 1.604, 1.604, 1.607, 1.607, 1.607, 1.607, 1.603, 1.603, 1.602, 1.599, 1.598, 1.598, 1.598, 1.598, 1.599, 1.599, 1.602, 1.602, 1.603, 1.603, 1.603, 1.603, 1.603, 1.604, 1.604, 1.604, 1.604, 1.604, 1.603, 1.603, 1.603, 1.602, 1.598, 1.597, 1.597, 1.596, 1.592, 1.592, 1.591, 1.59, 1.59, 1.59, 1.59, 1.59, 1.59, 1.591, 1.592, 1.592, 1.596, 1.597, 1.597, 1.598, 1.599, 1.599, 1.599, 1.599, 1.599, 1.599, 1.599, 1.599, 1.598, 1.597, 1.597, 1.596, 1.595, 1.592, 1.591, 1.591, 1.59, 1.587, 1.587, 1.587, 1.587, 1.59, 1.591, 1.591, 1.591, 1.592, 1.592, 1.592, 1.591, 1.591, 1.591, 1.587, 1.586, 1.585, 1.584, 1.583, 1.583, 1.583, 1.583, 1.583, 1.584, 1.585, 1.586, 1.591, 1.591, 1.592, 1.595, 1.592, 1.592, 1.592, 1.591, 1.591, 1.586, 1.585, 1.584, 1.583, 1.58, 1.58, 1.58, 1.58, 1.58, 1.58, 1.58, 1.583, 1.583, 1.583, 1.584, 1.585, 1.586, 1.587, 1.587, 1.587, 1.587, 1.587, 1.587, 1.587, 1.587, 1.587, 1.587, 1.587, 1.587, 1.59, 1.591, 1.591, 1.591, 1.591, 1.586, 1.585, 1.584, 1.579, 1.578, 1.577, 1.577, 1.573, 1.573, 1.572, 1.571, 1.571, 1.571, 1.571, 1.57, 1.57, 1.57, 1.571, 1.571, 1.572, 1.572, 1.573, 1.573, 1.573, 1.573, 1.572, 1.571, 1.57, 1.569, 1.569, 1.568, 1.567, 1.567, 1.564, 1.564, 1.564, 1.564, 1.564, 1.564, 1.564, 1.567, 1.568, 1.568, 1.569, 1.569, 1.569, 1.569, 1.569, 1.568, 1.568, 1.563, 1.562, 1.562, 1.561, 1.56, 1.557, 1.557, 1.556, 1.555, 1.555, 1.555, 1.555, 1.554, 1.553, 1.553, 1.552, 1.552, 1.551, 1.551, 1.551, 1.551, 1.551, 1.551, 1.552, 1.553, 1.553, 1.554, 1.555, 1.556, 1.556, 1.556, 1.555, 1.555, 1.554, 1.553, 1.552, 1.551, 1.551, 1.551, 1.548, 1.548, 1.548, 1.547, 1.546, 1.546, 1.545, 1.545, 1.545, 1.545, 1.545, 1.545, 1.545, 1.546, 1.546, 1.546, 1.546, 1.546, 1.546, 1.546, 1.545, 1.545, 1.544, 1.544, 1.543, 1.543, 1.542, 1.539, 1.538, 1.537, 1.537, 1.537, 1.537, 1.537, 1.537, 1.537, 1.538, 1.539, 1.539, 1.539, 1.539, 1.539, 1.538, 1.537, 1.535, 1.533, 1.532, 1.528, 1.524, 1.524, 1.523, 1.523, 1.523, 1.524, 1.524, 1.527, 1.527, 1.531, 1.531, 1.532, 1.531, 1.528, 1.528, 1.527, 1.526, 1.526, 1.526, 1.526, 1.526, 1.526, 1.526, 1.526, 1.527, 1.527, 1.527, 1.528, 1.528, 1.528, 1.531, 1.531, 1.528, 1.527, 1.526, 1.525, 1.524, 1.524, 1.524, 1.524, 1.524, 1.524, 1.525, 1.526, 1.527, 1.528, 1.528, 1.528, 1.528, 1.527, 1.526, 1.526, 1.526, 1.526, 1.526, 1.526, 1.526, 1.526, 1.526, 1.527, 1.527, 1.528, 1.528, 1.531, 1.531, 1.531, 1.531, 1.528, 1.528, 1.527, 1.526, 1.525, 1.524, 1.524, 1.524, 1.523, 1.522, 1.521, 1.52, 1.518, 1.517, 1.512, 1.511, 1.51, 1.51, 1.509, 1.51, 1.511, 1.511, 1.512, 1.517, 1.518
1.625, 1.625, 1.624, 1.624, 1.624, 1.621, 1.621, 1.62, 1.62, 1.619, 1.619, 1.619, 1.619, 1.616, 1.616, 1.616, 1.616, 1.619, 1.619, 1.616, 1.616, 1.616, 1.616, 1.615, 1.614, 1.614, 1.611, 1.611, 1.611, 1.611, 1.611, 1.611, 1.611, 1.615, 1.615, 1.616, 1.619, 1.619, 1.619, 1.616, 1.616, 1.615, 1.61, 1.609, 1.609, 1.608, 1.607, 1.607, 1.607, 1.608, 1.609, 1.61, 1.611, 1.611, 1.611, 1.611, 1.611, 1.611, 1.611, 1.61, 1.61, 1.609, 1.609, 1.609, 1.609, 1.609, 1.609, 1.608, 1.607, 1.604, 1.604, 1.603, 1.603, 1.603, 1.603, 1.604, 1.607, 1.607, 1.607, 1.607, 1.607, 1.603, 1.603, 1.602, 1.599, 1.599, 1.599, 1.599, 1.599, 1.599, 1.602, 1.602, 1.603, 1.603, 1.604, 1.604, 1.604, 1.604, 1.604, 1.604, 1.604, 1.607, 1.607, 1.607, 1.607, 1.603, 1.603, 1.602, 1.598, 1.597, 1.596, 1.596, 1.592, 1.591, 1.591, 1.59, 1.587, 1.587, 1.59, 1.59, 1.591, 1.591, 1.592, 1.596, 1.596, 1.597, 1.598, 1.598, 1.599, 1.599, 1.599, 1.599, 1.599, 1.599, 1.599, 1.598, 1.597, 1.597, 1.596, 1.595, 1.592, 1.591, 1.591, 1.587, 1.587, 1.587, 1.587, 1.587, 1.587, 1.587, 1.591, 1.591, 1.591, 1.591, 1.591, 1.591, 1.591, 1.587, 1.586, 1.585, 1.584, 1.583, 1.583, 1.58, 1.58, 1.58, 1.583, 1.584, 1.585, 1.586, 1.591, 1.591, 1.592, 1.595, 1.592, 1.592, 1.592, 1.591, 1.591, 1.586, 1.585, 1.584, 1.583, 1.583, 1.58, 1.58, 1.58, 1.58, 1.58, 1.58, 1.583, 1.583, 1.583, 1.584, 1.585, 1.586, 1.587, 1.587, 1.587, 1.587, 1.587, 1.587, 1.587, 1.587, 1.587, 1.587, 1.587, 1.59, 1.591, 1.591, 1.592, 1.591, 1.591, 1.586, 1.585, 1.584, 1.583, 1.578, 1.578, 1.577, 1.576, 1.573, 1.572, 1.571, 1.571, 1.571, 1.571, 1.57, 1.569, 1.57, 1.571, 1.571, 1.572, 1.573, 1.573, 1.573, 1.573, 1.573, 1.572, 1.572, 1.571, 1.57, 1.569, 1.568, 1.567, 1.567, 1.564, 1.564, 1.564, 1.564, 1.564, 1.564, 1.567, 1.568, 1.568, 1.569, 1.57, 1.57, 1.57, 1.57, 1.57, 1.569, 1.568, 1.563, 1.563, 1.562, 1.561, 1.56, 1.557, 1.557, 1.556, 1.556, 1.555, 1.555, 1.555, 1.554, 1.554, 1.553, 1.553, 1.552, 1.551, 1.551, 1.551, 1.551, 1.551, 1.552, 1.552, 1.553, 1.554, 1.555, 1.555, 1.556, 1.557, 1.556, 1.555, 1.555, 1.554, 1.553, 1.552, 1.551, 1.551, 1.548, 1.548, 1.548, 1.548, 1.547, 1.547, 1.546, 1.546, 1.546, 1.546, 1.546, 1.546, 1.546, 1.546, 1.546, 1.546, 1.546, 1.546, 1.546, 1.546, 1.546, 1.546, 1.546, 1.545, 1.544, 1.544, 1.543, 1.542, 1.539, 1.538, 1.538, 1.537, 1.537, 1.537, 1.537, 1.537, 1.537, 1.538, 1.538, 1.539, 1.539, 1.539, 1.538, 1.537, 1.536, 1.535, 1.533, 1.532, 1.528, 1.524, 1.524, 1.523, 1.523, 1.523, 1.524, 1.524, 1.528, 1.528, 1.531, 1.531, 1.531, 1.531, 1.528, 1.527, 1.526, 1.525, 1.525, 1.525, 1.525, 1.526, 1.526, 1.526, 1.526, 1.527, 1.528, 1.528, 1.528, 1.528, 1.528, 1.531, 1.531, 1.528, 1.527, 1.526, 1.526, 1.525, 1.524, 1.524, 1.524, 1.524, 1.525, 1.526, 1.527, 1.528, 1.528, 1.528, 1.528, 1.527, 1.527, 1.526, 1.526, 1.526, 1.526, 1.526, 1.526, 1.526, 1.526, 1.527, 1.528, 1.528, 1.528, 1.528, 1.531, 1.531, 1.531, 1.528, 1.528, 1.528, 1.527, 1.526, 1.525, 1.524, 1.524, 1.524, 1.524, 1.523, 1.52, 1.519, 1.518, 1.517, 1.512, 1.511, 1.51, 1.509, 1.509, 1.51, 1.511, 1.511, 1.512, 1.517, 1.518
1.625, 1.624, 1.624, 1.621, 1.621, 1.621, 1.62, 1.62, 1.619, 1.619, 1.619, 1.619, 1.616, 1.616, 1.616, 1.616, 1.616, 1.616, 1.616, 1.616, 1.616, 1.616, 1.616, 1.615, 1.614, 1.614, 1.611, 1.611, 1.611, 1.61, 1.61, 1.61, 1.611, 1.614, 1.615, 1.616, 1.619, 1.619, 1.619, 1.616, 1.616, 1.615, 1.61, 1.609, 1.609, 1.608, 1.607, 1.607, 1.607, 1.608, 1.609, 1.61, 1.611, 1.611, 1.611, 1.614, 1.611, 1.611, 1.611, 1.61, 1.61, 1.609, 1.609, 1.609, 1.609, 1.609, 1.609, 1.608, 1.607, 1.607, 1.604, 1.604, 1.604, 1.604, 1.604, 1.604, 1.607, 1.607, 1.607, 1.607, 1.604, 1.603, 1.603, 1.602, 1.599, 1.599, 1.599, 1.599, 1.599, 1.602, 1.602, 1.602, 1.603, 1.604, 1.604, 1.604, 1.604, 1.604, 1.604, 1.604, 1.607, 1.607, 1.607, 1.607, 1.607, 1.607, 1.603, 1.602, 1.602, 1.598, 1.597, 1.596, 1.592, 1.591, 1.591, 1.59, 1.587, 1.587, 1.587, 1.59, 1.59, 1.591, 1.592, 1.595, 1.596, 1.597, 1.597, 1.598, 1.598, 1.599, 1.599, 1.599, 1.599, 1.598, 1.598, 1.598, 1.597, 1.597, 1.596, 1.592, 1.592, 1.591, 1.587, 1.587, 1.587, 1.587, 1.587, 1.587, 1.587, 1.587, 1.587, 1.587, 1.59, 1.591, 1.591, 1.59, 1.587, 1.587, 1.586, 1.585, 1.584, 1.583, 1.583, 1.58, 1.58, 1.58, 1.58, 1.583, 1.583, 1.586, 1.587, 1.592, 1.592, 1.592, 1.592, 1.592, 1.592, 1.592, 1.591, 1.587, 1.586, 1.585, 1.584, 1.583, 1.583, 1.583, 1.58, 1.58, 1.58, 1.583, 1.583, 1.583, 1.583, 1.584, 1.585, 1.585, 1.586, 1.587, 1.587, 1.587, 1.587, 1.587, 1.587, 1.587, 1.587, 1.587, 1.587, 1.59, 1.591, 1.592, 1.592, 1.591, 1.591, 1.586, 1.585, 1.584, 1.583, 1.579, 1.578, 1.577, 1.576, 1.576, 1.572, 1.572, 1.571, 1.571, 1.571, 1.57, 1.57, 1.57, 1.571, 1.571, 1.572, 1.573, 1.573, 1.576, 1.576, 1.573, 1.573, 1.572, 1.571, 1.57, 1.569, 1.568, 1.567, 1.567, 1.564, 1.564, 1.564, 1.564, 1.564, 1.567, 1.568, 1.568, 1.569, 1.57, 1.57, 1.571, 1.571, 1.571, 1.57, 1.569, 1.568, 1.567, 1.563, 1.562, 1.561, 1.56, 1.557, 1.557, 1.557, 1.556, 1.555, 1.555, 1.555, 1.555, 1.554, 1.553, 1.553, 1.552, 1.552, 1.551, 1.551, 1.551, 1.551, 1.552, 1.553, 1.553, 1.554, 1.555, 1.556, 1.556, 1.557, 1.556, 1.555, 1.555, 1.554, 1.553, 1.552, 1.551, 1.551, 1.548, 1.548, 1.548, 1.548, 1.548, 1.547, 1.547, 1.546, 1.546, 1.546, 1.546, 1.546, 1.546, 1.546, 1.546, 1.546, 1.547, 1.547, 1.547, 1.547, 1.547, 1.546, 1.546, 1.546, 1.545, 1.544, 1.543, 1.543, 1.542, 1.539, 1.538, 1.538, 1.537, 1.537, 1.537, 1.537, 1.537, 1.538, 1.539, 1.539, 1.539, 1.539, 1.538, 1.537, 1.536, 1.535, 1.533, 1.532, 1.528, 1.525, 1.524, 1.524, 1.524, 1.524, 1.524, 1.525, 1.528, 1.528, 1.531, 1.531, 1.531, 1.528, 1.528, 1.527, 1.526, 1.525, 1.524, 1.524, 1.525, 1.525, 1.526, 1.526, 1.527, 1.527, 1.528, 1.528, 1.528, 1.528, 1.531, 1.531, 1.531, 1.528, 1.528, 1.527, 1.526, 1.525, 1.524, 1.524, 1.524, 1.525, 1.526, 1.526, 1.527, 1.528, 1.528, 1.528, 1.527, 1.526, 1.526, 1.526, 1.526, 1.526, 1.526, 1.526, 1.526, 1.526, 1.527, 1.527, 1.528, 1.528, 1.528, 1.531, 1.531, 1.531, 1.531, 1.528, 1.528, 1.528, 1.527, 1.526, 1.525, 1.525, 1.525, 1.524, 1.524, 1.524, 1.52, 1.52, 1.518, 1.517, 1.512, 1.511, 1.51, 1.509, 1.509, 1.51, 1.511, 1.511, 1.512, 1.517, 1.518
1.625, 1.624, 1.621, 1.621, 1.62, 1.62, 1.62, 1.619, 1.619, 1.619, 1.619, 1.616, 1.616, 1.616, 1.616, 1.616, 1.616, 1.616, 1.616, 1.616, 1.616, 1.616, 1.616, 1.615, 1.614, 1.614, 1.611, 1.611, 1.61, 1.61, 1.609, 1.61, 1.61, 1.614, 1.615, 1.615, 1.619, 1.619, 1.619, 1.616, 1.616, 1.615, 1.61, 1.609, 1.609, 1.608, 1.607, 1.607, 1.607, 1.608, 1.609, 1.609, 1.61, 1.611, 1.614, 1.614, 1.614, 1.611, 1.611, 1.611, 1.61, 1.609, 1.609, 1.609, 1.609, 1.609, 1.609, 1.608, 1.607, 1.607, 1.604, 1.604, 1.604, 1.604, 1.604, 1.607, 1.607, 1.607, 1.607, 1.607, 1.604, 1.603, 1.603, 1.602, 1.602, 1.602, 1.602, 1.602, 1.602, 1.602, 1.602, 1.603, 1.604, 1.604, 1.604, 1.604, 1.604, 1.604, 1.604, 1.607, 1.607, 1.608, 1.608, 1.608, 1.608, 1.607, 1.603, 1.603, 1.602, 1.598, 1.597, 1.596, 1.592, 1.591, 1.591, 1.59, 1.587, 1.587, 1.587, 1.59, 1.59, 1.591, 1.591, 1.595, 1.596, 1.597, 1.597, 1.597, 1.598, 1.598, 1.598, 1.598, 1.598, 1.598, 1.597, 1.597, 1.597, 1.596, 1.596, 1.592, 1.592, 1.591, 1.587, 1.587, 1.587, 1.587, 1.587, 1.587, 1.587, 1.587, 1.587, 1.587, 1.587, 1.587, 1.587, 1.587, 1.587, 1.587, 1.586, 1.585, 1.584, 1.583, 1.583, 1.58, 1.58, 1.58, 1.58, 1.583, 1.584, 1.585, 1.586, 1.591, 1.592, 1.592, 1.592, 1.592, 1.592, 1.591, 1.591, 1.587, 1.586, 1.585, 1.584, 1.583, 1.583, 1.583, 1.583, 1.583, 1.583, 1.583, 1.583, 1.583, 1.584, 1.584, 1.585, 1.585, 1.586, 1.586, 1.586, 1.586, 1.586, 1.586, 1.586, 1.586, 1.587, 1.587, 1.59, 1.59, 1.591, 1.592, 1.592, 1.592, 1.591, 1.587, 1.586, 1.585, 1.584, 1.579, 1.579, 1.578, 1.577, 1.576, 1.573, 1.572, 1.571, 1.571, 1.571, 1.57, 1.57, 1.57, 1.571, 1.572, 1.572, 1.573, 1.576, 1.576, 1.576, 1.576, 1.573, 1.572, 1.572, 1.571, 1.57, 1.569, 1.568, 1.567, 1.567, 1.567, 1.567, 1.567, 1.567, 1.568, 1.568, 1.569, 1.57, 1.57, 1.571, 1.571, 1.572, 1.571, 1.57, 1.569, 1.568, 1.568, 1.563, 1.562, 1.561, 1.56, 1.557, 1.557, 1.557, 1.556, 1.555, 1.555, 1.555, 1.555, 1.554, 1.553, 1.553, 1.553, 1.552, 1.551, 1.551, 1.551, 1.552, 1.553, 1.553, 1.554, 1.555, 1.555, 1.556, 1.557, 1.557, 1.557, 1.556, 1.555, 1.554, 1.553, 1.552, 1.551, 1.551, 1.548, 1.548, 1.548, 1.548, 1.548, 1.548, 1.547, 1.547, 1.546, 1.546, 1.546, 1.546, 1.546, 1.547, 1.547, 1.547, 1.548, 1.548, 1.548, 1.548, 1.548, 1.547, 1.547, 1.546, 1.546, 1.545, 1.544, 1.543, 1.543, 1.542, 1.539, 1.538, 1.538, 1.537, 1.537, 1.537, 1.538, 1.538, 1.539, 1.539, 1.539, 1.539, 1.538, 1.537, 1.536, 1.535, 1.533, 1.532, 1.527, 1.526, 1.525, 1.524, 1.524, 1.524, 1.525, 1.526, 1.527, 1.528, 1.531, 1.531, 1.531, 1.528, 1.528, 1.527, 1.526, 1.525, 1.524, 1.524, 1.524, 1.525, 1.526, 1.526, 1.527, 1.528, 1.528, 1.528, 1.528, 1.528, 1.531, 1.531, 1.531, 1.528, 1.528, 1.527, 1.526, 1.526, 1.525, 1.525, 1.525, 1.526, 1.526, 1.527, 1.528, 1.528, 1.528, 1.527, 1.526, 1.526, 1.525, 1.525, 1.525, 1.525, 1.525, 1.526, 1.526, 1.526, 1.527, 1.528, 1.528, 1.528, 1.531, 1.531, 1.531, 1.531, 1.528, 1.528, 1.528, 1.527, 1.527, 1.526, 1.526, 1.525, 1.525, 1.525, 1.525, 1.524, 1.521, 1.52, 1.519, 1.516, 1.512, 1.511, 1.51, 1.509, 1.509, 1.51, 1.511, 1.511, 1.512, 1.517, 1.518
1.625, 1.624, 1.621, 1.62, 1.62, 1.619, 1.619, 1.619, 1.619, 1.619, 1.619, 1.616, 1.616, 1.616, 1.616, 1.616, 1.616, 1.616, 1.616, 1.616, 1.616, 1.616, 1.616, 1.615, 1.614, 1.614, 1.611, 1.611, 1.61, 1.609, 1.609, 1.61, 1.61, 1.611, 1.615, 1.616, 1.616, 1.619, 1.619, 1.619, 1.616, 1.616, 1.61, 1.61, 1.609, 1.608, 1.607, 1.607, 1.607, 1.608, 1.609, 1.609, 1.61, 1.611, 1.614, 1.614, 1.614, 1.611, 1.611, 1.611, 1.61, 1.609, 1.609, 1.609, 1.609, 1.609, 1.609, 1.608, 1.607, 1.607, 1.604, 1.604, 1.604, 1.604, 1.607, 1.607, 1.607, 1.607, 1.607, 1.607, 1.604, 1.604, 1.603, 1.602, 1.602, 1.602, 1.602, 1.602, 1.602, 1.602, 1.603, 1.603, 1.604, 1.604, 1.604, 1.604, 1.604, 1.604, 1.607, 1.607, 1.607, 1.608, 1.609, 1.609, 1.608, 1.607, 1.607, 1.603, 1.603, 1.598, 1.597, 1.596, 1.592, 1.592, 1.591, 1.587, 1.587, 1.587, 1.587, 1.587, 1.59, 1.591, 1.591, 1.592, 1.596, 1.596, 1.597, 1.597, 1.597, 1.597, 1.597, 1.597, 1.597, 1.597, 1.597, 1.597, 1.596, 1.596, 1.595, 1.592, 1.591, 1.591, 1.587, 1.587, 1.587, 1.586, 1.586, 1.586, 1.586, 1.587, 1.587, 1.587, 1.587, 1.587, 1.587, 1.587, 1.587, 1.587, 1.586, 1.585, 1.584, 1.583, 1.58, 1.58, 1.58, 1.58, 1.58, 1.583, 1.584, 1.585, 1.586, 1.591, 1.592, 1.592, 1.592, 1.592, 1.592, 1.591, 1.591, 1.587, 1.586, 1.586, 1.585, 1.584, 1.584, 1.583, 1.583, 1.583, 1.583, 1.583, 1.583, 1.584, 1.584, 1.585, 1.585, 1.585, 1.585, 1.585, 1.585, 1.585, 1.585, 1.585, 1.585, 1.586, 1.587, 1.587, 1.59, 1.591, 1.592, 1.592, 1.592, 1.592, 1.592, 1.587, 1.586, 1.585, 1.584, 1.58, 1.579, 1.578, 1.577, 1.576, 1.573, 1.573, 1.572, 1.571, 1.571, 1.571, 1.571, 1.571, 1.571, 1.572, 1.572, 1.576, 1.576, 1.576, 1.576, 1.576, 1.576, 1.573, 1.572, 1.571, 1.57, 1.569, 1.568, 1.568, 1.567, 1.567, 1.567, 1.567, 1.568, 1.568, 1.569, 1.57, 1.57, 1.571, 1.571, 1.572, 1.572, 1.571, 1.571, 1.569, 1.569, 1.568, 1.563, 1.562, 1.561, 1.56, 1.557, 1.557, 1.557, 1.556, 1.555, 1.555, 1.555, 1.555, 1.554, 1.553, 1.553, 1.553, 1.552, 1.552, 1.552, 1.552, 1.552, 1.553, 1.554, 1.554, 1.555, 1.556, 1.557, 1.56, 1.557, 1.557, 1.556, 1.556, 1.555, 1.554, 1.553, 1.552, 1.551, 1.548, 1.548, 1.548, 1.548, 1.548, 1.548, 1.548, 1.548, 1.547, 1.547, 1.547, 1.547, 1.547, 1.547, 1.548, 1.548, 1.548, 1.548, 1.548, 1.548, 1.548, 1.548, 1.547, 1.546, 1.546, 1.545, 1.545, 1.544, 1.543, 1.543, 1.539, 1.539, 1.538, 1.537, 1.537, 1.538, 1.538, 1.539, 1.539, 1.539, 1.539, 1.539, 1.538, 1.537, 1.536, 1.535, 1.533, 1.532, 1.528, 1.527, 1.526, 1.525, 1.525, 1.525, 1.526, 1.527, 1.528, 1.528, 1.531, 1.531, 1.531, 1.528, 1.528, 1.527, 1.526, 1.525, 1.525, 1.525, 1.525, 1.525, 1.526, 1.526, 1.527, 1.528, 1.528, 1.528, 1.528, 1.528, 1.531, 1.531, 1.531, 1.528, 1.528, 1.528, 1.527, 1.526, 1.526, 1.526, 1.526, 1.526, 1.527, 1.528, 1.528, 1.528, 1.528, 1.527, 1.526, 1.525, 1.524, 1.524, 1.524, 1.524, 1.525, 1.525, 1.526, 1.526, 1.527, 1.528, 1.528, 1.528, 1.531, 1.531, 1.531, 1.531, 1.528, 1.528, 1.527, 1.526, 1.526, 1.526, 1.525, 1.525, 1.525, 1.525, 1.525, 1.524, 1.522, 1.521, 1.52, 1.516, 1.512, 1.511, 1.511, 1.51, 1.51, 1.51, 1.511, 1.511, 1.512, 1.517, 1.518
1.625, 1.624, 1.62, 1.62, 1.619, 1.619, 1.619, 1.619, 1.619, 1.619, 1.619, 1.616, 1.616, 1.616, 1.616, 1.616, 1.616, 1.616, 1.615, 1.616, 1.616, 1.616, 1.616, 1.615, 1.614, 1.614, 1.611, 1.611, 1.61, 1.609, 1.609, 1.61, 1.61, 1.611, 1.615, 1.615, 1.616, 1.619, 1.619, 1.619, 1.616, 1.616, 1.611, 1.61, 1.609, 1.608, 1.607, 1.607, 1.607, 1.608, 1.609, 1.609, 1.61, 1.614, 1.614, 1.614, 1.614, 1.611, 1.611, 1.611, 1.61, 1.609, 1.609, 1.609, 1.609, 1.609, 1.608, 1.608, 1.607, 1.607, 1.604, 1.604, 1.604, 1.604, 1.607, 1.607, 1.607, 1.607, 1.607, 1.607, 1.607, 1.604, 1.603, 1.602, 1.602, 1.602, 1.602, 1.602, 1.603, 1.603, 1.603, 1.604, 1.604, 1.604, 1.604, 1.604, 1.604, 1.604, 1.607, 1.607, 1.608, 1.608, 1.609, 1.609, 1.608, 1.608, 1.607, 1.603, 1.603, 1.598, 1.597, 1.596, 1.592, 1.592, 1.591, 1.587, 1.587, 1.587, 1.587, 1.587, 1.59, 1.591, 1.591, 1.592, 1.595, 1.596, 1.597, 1.597, 1.597, 1.597, 1.597, 1.597, 1.597, 1.597, 1.597, 1.596, 1.596, 1.595, 1.592, 1.592, 1.591, 1.591, 1.587, 1.587, 1.587, 1.586, 1.585, 1.585, 1.586, 1.586, 1.587, 1.587, 1.587, 1.587, 1.587, 1.587, 1.587, 1.586, 1.586, 1.585, 1.584, 1.583, 1.58, 1.58, 1.58, 1.58, 1.58, 1.58, 1.584, 1.585, 1.586, 1.591, 1.591, 1.592, 1.592, 1.592, 1.592, 1.591, 1.591, 1.587, 1.587, 1.586, 1.585, 1.585, 1.585, 1.584, 1.584, 1.584, 1.584, 1.584, 1.584, 1.585, 1.585, 1.585, 1.585, 1.585, 1.585, 1.585, 1.585, 1.585, 1.585, 1.585, 1.585, 1.586, 1.586, 1.587, 1.59, 1.591, 1.592, 1.592, 1.595, 1.592, 1.592, 1.591, 1.587, 1.587, 1.584, 1.583, 1.579, 1.579, 1.578, 1.577, 1.576, 1.573, 1.572, 1.572, 1.571, 1.571, 1.571, 1.571, 1.572, 1.572, 1.576, 1.576, 1.576, 1.577, 1.577, 1.577, 1.577, 1.576, 1.573, 1.572, 1.571, 1.57, 1.569, 1.568, 1.568, 1.567, 1.567, 1.568, 1.568, 1.569, 1.569, 1.57, 1.571, 1.571, 1.572, 1.572, 1.572, 1.571, 1.571, 1.569, 1.569, 1.568, 1.563, 1.563, 1.562, 1.561, 1.56, 1.557, 1.557, 1.556, 1.556, 1.555, 1.555, 1.555, 1.554, 1.553, 1.553, 1.553, 1.553, 1.553, 1.553, 1.553, 1.553, 1.553, 1.554, 1.555, 1.556, 1.557, 1.56, 1.56, 1.56, 1.56, 1.557, 1.556, 1.555, 1.554, 1.553, 1.552, 1.551, 1.551, 1.548, 1.548, 1.548, 1.548, 1.548, 1.548, 1.548, 1.548, 1.548, 1.548, 1.548, 1.548, 1.548, 1.548, 1.548, 1.548, 1.548, 1.548, 1.548, 1.548, 1.548, 1.547, 1.547, 1.546, 1.546, 1.545, 1.544, 1.543, 1.543, 1.539, 1.539, 1.538, 1.538, 1.538, 1.538, 1.539, 1.539, 1.539, 1.539, 1.539, 1.539, 1.538, 1.537, 1.537, 1.535, 1.534, 1.533, 1.532, 1.528, 1.527, 1.526, 1.527, 1.527, 1.527, 1.528, 1.528, 1.531, 1.531, 1.531, 1.531, 1.531, 1.528, 1.527, 1.527, 1.526, 1.526, 1.526, 1.526, 1.526, 1.526, 1.527, 1.527, 1.528, 1.528, 1.528, 1.528, 1.528, 1.531, 1.531, 1.528, 1.528, 1.528, 1.527, 1.527, 1.526, 1.526, 1.526, 1.526, 1.527, 1.527, 1.528, 1.528, 1.528, 1.527, 1.526, 1.525, 1.524, 1.524, 1.524, 1.524, 1.524, 1.524, 1.525, 1.525, 1.526, 1.527, 1.528, 1.528, 1.531, 1.531, 1.531, 1.531, 1.528, 1.528, 1.527, 1.526, 1.526, 1.525, 1.525, 1.525, 1.525, 1.525, 1.525, 1.525, 1.524, 1.523, 1.522, 1.521, 1.517, 1.516, 1.511, 1.511, 1.511, 1.511, 1.511, 1.511, 1.511, 1.516, 1.517, 1.518
1.625, 1.624, 1.62, 1.62, 1.619, 1.619, 1.619, 1.619, 1.619, 1.619, 1.619, 1.619, 1.619, 1.616, 1.616, 1.615, 1.615, 1.615, 1.615, 1.615, 1.615, 1.615, 1.615, 1.615, 1.614, 1.614, 1.611, 1.61, 1.61, 1.609, 1.609, 1.609, 1.61, 1.611, 1.615, 1.615, 1.619, 1.619, 1.619, 1.619, 1.619, 1.616, 1.615, 1.61, 1.609, 1.608, 1.608, 1.608, 1.608, 1.608, 1.609, 1.61, 1.61, 1.614, 1.614, 1.614, 1.614, 1.614, 1.611, 1.611, 1.61, 1.609, 1.609, 1.609, 1.609, 1.608, 1.608, 1.607, 1.607, 1.607, 1.604, 1.604, 1.604, 1.607, 1.607, 1.607, 1.607, 1.607, 1.607, 1.607, 1.607, 1.604, 1.603, 1.603, 1.602, 1.602, 1.602, 1.603, 1.603, 1.604, 1.607, 1.607, 1.607, 1.607, 1.604, 1.604, 1.604, 1.604, 1.607, 1.607, 1.608, 1.609, 1.609, 1.609, 1.609, 1.608, 1.607, 1.603, 1.603, 1.602, 1.597, 1.596, 1.596, 1.592, 1.591, 1.591, 1.59, 1.587, 1.587, 1.587, 1.59, 1.591, 1.591, 1.592, 1.592, 1.596, 1.596, 1.597, 1.597, 1.597, 1.597, 1.597, 1.597, 1.597, 1.596, 1.596, 1.595, 1.595, 1.592, 1.592, 1.591, 1.59, 1.587, 1.587, 1.587, 1.586, 1.585, 1.585, 1.585, 1.585, 1.586, 1.586, 1.587, 1.587, 1.587, 1.587, 1.587, 1.586, 1.585, 1.584, 1.583, 1.583, 1.58, 1.58, 1.58, 1.58, 1.58, 1.58, 1.584, 1.585, 1.586, 1.591, 1.591, 1.592, 1.592, 1.592, 1.591, 1.591, 1.59, 1.587, 1.587, 1.586, 1.586, 1.585, 1.585, 1.585, 1.585, 1.585, 1.585, 1.585, 1.585, 1.585, 1.585, 1.585, 1.585, 1.585, 1.585, 1.585, 1.585, 1.585, 1.585, 1.585, 1.585, 1.585, 1.586, 1.587, 1.591, 1.591, 1.592, 1.595, 1.595, 1.595, 1.592, 1.591, 1.587, 1.586, 1.585, 1.584, 1.583, 1.579, 1.578, 1.578, 1.577, 1.576, 1.573, 1.572, 1.572, 1.572, 1.572, 1.572, 1.572, 1.573, 1.576, 1.576, 1.577, 1.577, 1.578, 1.578, 1.577, 1.577, 1.576, 1.572, 1.571, 1.57, 1.569, 1.569, 1.568, 1.568, 1.568, 1.568, 1.569, 1.569, 1.57, 1.571, 1.571, 1.572, 1.572, 1.573, 1.572, 1.571, 1.571, 1.569, 1.569, 1.568, 1.567, 1.563, 1.562, 1.561, 1.561, 1.557, 1.557, 1.557, 1.556, 1.555, 1.555, 1.555, 1.554, 1.553, 1.553, 1.553, 1.553, 1.553, 1.553, 1.553, 1.553, 1.554, 1.555, 1.556, 1.556, 1.557, 1.56, 1.56, 1.56, 1.56, 1.56, 1.557, 1.556, 1.555, 1.554, 1.553, 1.552, 1.551, 1.551, 1.548, 1.548, 1.548, 1.548, 1.548, 1.548, 1.548, 1.548, 1.548, 1.548, 1.548, 1.548, 1.548, 1.548, 1.548, 1.548, 1.548, 1.548, 1.548, 1.548, 1.548, 1.547, 1.546, 1.546, 1.545, 1.544, 1.543, 1.542, 1.539, 1.539, 1.539, 1.539, 1.539, 1.539, 1.539, 1.539, 1.539, 1.539, 1.539, 1.539, 1.538, 1.537, 1.537, 1.536, 1.534, 1.533, 1.532, 1.532, 1.528, 1.527, 1.528, 1.528, 1.528, 1.528, 1.528, 1.531, 1.531, 1.531, 1.531, 1.531, 1.528, 1.528, 1.527, 1.527, 1.526, 1.526, 1.526, 1.526, 1.527, 1.527, 1.528, 1.528, 1.528, 1.528, 1.528, 1.528, 1.528, 1.528, 1.528, 1.528, 1.527, 1.527, 1.526, 1.526, 1.526, 1.526, 1.526, 1.527, 1.528, 1.528, 1.528, 1.528, 1.527, 1.526, 1.525, 1.524, 1.524, 1.524, 1.524, 1.524, 1.524, 1.524, 1.525, 1.526, 1.527, 1.528, 1.528, 1.531, 1.531, 1.531, 1.528, 1.528, 1.527, 1.526, 1.525, 1.525, 1.524, 1.524, 1.524, 1.524, 1.525, 1.525, 1.525, 1.525, 1.523, 1.522, 1.52, 1.518, 1.517, 1.512, 1.511, 1.511, 1.511, 1.511, 1.511, 1.512, 1.516, 1.517, 1.518
1.625, 1.624, 1.62, 1.62, 1.619, 1.619, 1.619, 1.619, 1.619, 1.619, 1.619, 1.619, 1.619, 1.616, 1.616, 1.615, 1.614, 1.614, 1.614, 1.614, 1.614, 1.614, 1.614, 1.614, 1.614, 1.611, 1.611, 1.61, 1.609, 1.609, 1.609, 1.609, 1.61, 1.61, 1.615, 1.615, 1.619, 1.619, 1.619, 1.619, 1.619, 1.616, 1.615, 1.61, 1.61, 1.609, 1.609, 1.609, 1.609, 1.609, 1.609, 1.61, 1.614, 1.614, 1.614, 1.614, 1.614, 1.614, 1.611, 1.611, 1.61, 1.609, 1.609, 1.609, 1.608, 1.608, 1.607, 1.607, 1.607, 1.607, 1.607, 1.607, 1.607, 1.607, 1.607, 1.607, 1.607, 1.607, 1.607, 1.607, 1.607, 1.604, 1.604, 1.603, 1.603, 1.603, 1.603, 1.603, 1.607, 1.607, 1.607, 1.607, 1.607, 1.607, 1.604, 1.604, 1.604, 1.604, 1.607, 1.608, 1.608, 1.609, 1.609, 1.609, 1.609, 1.608, 1.608, 1.604, 1.603, 1.602, 1.598, 1.597, 1.596, 1.592, 1.592, 1.591, 1.591, 1.59, 1.587, 1.587, 1.59, 1.59, 1.591, 1.592, 1.592, 1.595, 1.596, 1.596, 1.597, 1.597, 1.597, 1.597, 1.596, 1.596, 1.596, 1.595, 1.592, 1.592, 1.592, 1.591, 1.591, 1.587, 1.587, 1.587, 1.586, 1.586, 1.585, 1.585, 1.585, 1.585, 1.585, 1.586, 1.586, 1.586, 1.586, 1.586, 1.586, 1.585, 1.585, 1.584, 1.583, 1.583, 1.58, 1.58, 1.58, 1.58, 1.58, 1.58, 1.584, 1.585, 1.586, 1.59, 1.591, 1.592, 1.592, 1.592, 1.591, 1.59, 1.587, 1.587, 1.587, 1.587, 1.586, 1.586, 1.586, 1.586, 1.586, 1.586, 1.586, 1.586, 1.586, 1.586, 1.586, 1.586, 1.586, 1.585, 1.585, 1.585, 1.585, 1.585, 1.584, 1.584, 1.584, 1.585, 1.586, 1.587, 1.59, 1.591, 1.592, 1.595, 1.595, 1.595, 1.592, 1.592, 1.587, 1.586, 1.585, 1.584, 1.583, 1.58, 1.579, 1.578, 1.577, 1.576, 1.576, 1.573, 1.572, 1.572, 1.572, 1.573, 1.573, 1.576, 1.576, 1.577, 1.578, 1.578, 1.579, 1.579, 1.578, 1.578, 1.577, 1.573, 1.572, 1.571, 1.57, 1.569, 1.569, 1.569, 1.569, 1.569, 1.569, 1.57, 1.57, 1.571, 1.571, 1.572, 1.573, 1.573, 1.572, 1.571, 1.571, 1.569, 1.569, 1.568, 1.567, 1.563, 1.562, 1.562, 1.561, 1.56, 1.56, 1.557, 1.556, 1.555, 1.555, 1.555, 1.554, 1.553, 1.553, 1.553, 1.553, 1.553, 1.553, 1.554, 1.554, 1.555, 1.556, 1.556, 1.557, 1.56, 1.561, 1.561, 1.561, 1.56, 1.56, 1.557, 1.556, 1.555, 1.554, 1.553, 1.552, 1.552, 1.551, 1.551, 1.548, 1.548, 1.548, 1.548, 1.548, 1.548, 1.548, 1.548, 1.548, 1.548, 1.548, 1.548, 1.548, 1.548, 1.548, 1.548, 1.548, 1.548, 1.547, 1.547, 1.546, 1.546, 1.546, 1.545, 1.544, 1.543, 1.542, 1.542, 1.539, 1.539, 1.539, 1.539, 1.539, 1.539, 1.539, 1.539, 1.539, 1.539, 1.539, 1.539, 1.538, 1.537, 1.536, 1.535, 1.534, 1.533, 1.532, 1.532, 1.528, 1.528, 1.528, 1.528, 1.528, 1.531, 1.531, 1.531, 1.531, 1.531, 1.531, 1.528, 1.528, 1.528, 1.528, 1.527, 1.527, 1.527, 1.527, 1.528, 1.528, 1.528, 1.528, 1.528, 1.528, 1.528, 1.528, 1.528, 1.528, 1.528, 1.528, 1.527, 1.526, 1.526, 1.526, 1.526, 1.526, 1.526, 1.527, 1.528, 1.528, 1.528, 1.528, 1.527, 1.526, 1.525, 1.524, 1.523, 1.523, 1.523, 1.523, 1.523, 1.524, 1.524, 1.526, 1.527, 1.528, 1.528, 1.528, 1.528, 1.528, 1.528, 1.527, 1.526, 1.525, 1.524, 1.524, 1.524, 1.524, 1.524, 1.524, 1.525, 1.525, 1.526, 1.525, 1.524, 1.522, 1.521, 1.52, 1.516, 1.512, 1.512, 1.511, 1.511, 1.511, 1.511, 1.512, 1.516, 1.517, 1.518
1.625, 1.625, 1.621, 1.62, 1.62, 1.62, 1.62, 1.62, 1.62, 1.619, 1.619, 1.619, 1.619, 1.616, 1.616, 1.615, 1.614, 1.614, 1.614, 1.614, 1.614, 1.614, 1.614, 1.614, 1.614, 1.611, 1.61, 1.61, 1.609, 1.609, 1.609, 1.609, 1.61, 1.61, 1.615, 1.615, 1.619, 1.619, 1.619, 1.619, 1.619, 1.619, 1.615, 1.615, 1.61, 1.61, 1.609, 1.609, 1.609, 1.609, 1.61, 1.61, 1.614, 1.614, 1.614, 1.614, 1.614, 1.611, 1.611, 1.611, 1.61, 1.609, 1.609, 1.609, 1.608, 1.608, 1.607, 1.607, 1.607, 1.607, 1.607, 1.607, 1.607, 1.607, 1.607, 1.607, 1.607, 1.607, 1.607, 1.607, 1.604, 1.604, 1.604, 1.604, 1.604, 1.604, 1.604, 1.607, 1.607, 1.608, 1.608, 1.608, 1.607, 1.607, 1.607, 1.604, 1.604, 1.607, 1.607, 1.608, 1.609, 1.609, 1.609, 1.609, 1.609, 1.608, 1.607, 1.607, 1.603, 1.602, 1.598, 1.597, 1.596, 1.596, 1.592, 1.592, 1.591, 1.591, 1.59, 1.59, 1.59, 1.59, 1.591, 1.592, 1.592, 1.595, 1.595, 1.596, 1.596, 1.596, 1.596, 1.596, 1.596, 1.595, 1.595, 1.592, 1.592, 1.592, 1.591, 1.591, 1.59, 1.587, 1.587, 1.587, 1.587, 1.586, 1.585, 1.585, 1.585, 1.585, 1.585, 1.585, 1.585, 1.585, 1.585, 1.585, 1.585, 1.585, 1.584, 1.583, 1.583, 1.58, 1.58, 1.58, 1.58, 1.58, 1.58, 1.58, 1.584, 1.585, 1.586, 1.587, 1.591, 1.592, 1.592, 1.591, 1.591, 1.59, 1.587, 1.587, 1.587, 1.587, 1.587, 1.587, 1.587, 1.587, 1.587, 1.587, 1.587, 1.587, 1.587, 1.587, 1.587, 1.587, 1.586, 1.585, 1.585, 1.585, 1.584, 1.584, 1.584, 1.583, 1.583, 1.584, 1.585, 1.586, 1.587, 1.591, 1.592, 1.592, 1.595, 1.595, 1.592, 1.591, 1.591, 1.586, 1.585, 1.584, 1.583, 1.583, 1.58, 1.579, 1.578, 1.577, 1.576, 1.576, 1.576, 1.573, 1.573, 1.573, 1.576, 1.576, 1.577, 1.577, 1.578, 1.579, 1.58, 1.58, 1.579, 1.578, 1.578, 1.577, 1.572, 1.571, 1.571, 1.57, 1.569, 1.569, 1.569, 1.569, 1.57, 1.57, 1.571, 1.571, 1.572, 1.572, 1.573, 1.573, 1.572, 1.571, 1.571, 1.57, 1.569, 1.568, 1.568, 1.563, 1.563, 1.562, 1.561, 1.56, 1.56, 1.557, 1.556, 1.556, 1.555, 1.555, 1.554, 1.553, 1.553, 1.553, 1.553, 1.554, 1.554, 1.555, 1.555, 1.556, 1.556, 1.557, 1.56, 1.561, 1.561, 1.562, 1.562, 1.561, 1.56, 1.56, 1.556, 1.556, 1.555, 1.554, 1.553, 1.552, 1.552, 1.551, 1.551, 1.548, 1.548, 1.548, 1.548, 1.548, 1.548, 1.548, 1.548, 1.548, 1.548, 1.548, 1.548, 1.548, 1.548, 1.548, 1.547, 1.547, 1.546, 1.546, 1.546, 1.546, 1.545, 1.544, 1.544, 1.543, 1.542, 1.542, 1.539, 1.539, 1.539, 1.539, 1.539, 1.539, 1.539, 1.539, 1.539, 1.539, 1.539, 1.539, 1.538, 1.538, 1.537, 1.536, 1.535, 1.534, 1.533, 1.533, 1.533, 1.532, 1.532, 1.532, 1.532, 1.531, 1.531, 1.531, 1.531, 1.531, 1.531, 1.528, 1.528, 1.528, 1.528, 1.528, 1.528, 1.528, 1.528, 1.528, 1.528, 1.528, 1.528, 1.528, 1.528, 1.528, 1.528, 1.528, 1.528, 1.528, 1.527, 1.527, 1.526, 1.526, 1.526, 1.526, 1.526, 1.527, 1.527, 1.528, 1.528, 1.528, 1.528, 1.527, 1.526, 1.524, 1.524, 1.523, 1.522, 1.522, 1.522, 1.522, 1.523, 1.524, 1.525, 1.526, 1.527, 1.528, 1.528, 1.528, 1.528, 1.527, 1.526, 1.525, 1.524, 1.524, 1.523, 1.523, 1.523, 1.524, 1.524, 1.525, 1.526, 1.526, 1.526, 1.525, 1.523, 1.522, 1.521, 1.516, 1.516, 1.512, 1.511, 1.511, 1.511, 1.512, 1.512, 1.516, 1.517, 1.518
1.625, 1.625, 1.621, 1.621, 1.621, 1.62, 1.62, 1.62, 1.62, 1.62, 1.62, 1.62, 1.619, 1.616, 1.615, 1.615, 1.614, 1.614, 1.614, 1.614, 1.614, 1.614, 1.614, 1.614, 1.614, 1.611, 1.61, 1.61, 1.609, 1.609, 1.609, 1.609, 1.61, 1.614, 1.614, 1.615, 1.619, 1.62, 1.62, 1.62, 1.62, 1.62, 1.615, 1.615, 1.614, 1.61, 1.61, 1.61, 1.61, 1.61, 1.61, 1.61, 1.614, 1.614, 1.614, 1.614, 1.614, 1.611, 1.611, 1.611, 1.61, 1.609, 1.609, 1.609, 1.609, 1.608, 1.608, 1.607, 1.607, 1.607, 1.607, 1.607, 1.607, 1.607, 1.607, 1.607, 1.607, 1.607, 1.607, 1.604, 1.604, 1.604, 1.604, 1.604, 1.604, 1.604, 1.607, 1.608, 1.608, 1.609, 1.609, 1.609, 1.608, 1.608, 1.607, 1.607, 1.607, 1.607, 1.608, 1.608, 1.609, 1.609, 1.609, 1.609, 1.609, 1.608, 1.607, 1.607, 1.603, 1.602, 1.598, 1.598, 1.597, 1.596, 1.595, 1.592, 1.592, 1.591, 1.59, 1.59, 1.59, 1.59, 1.591, 1.592, 1.592, 1.592, 1.592, 1.595, 1.596, 1.596, 1.596, 1.592, 1.592, 1.592, 1.592, 1.592, 1.592, 1.591, 1.591, 1.59, 1.59, 1.587, 1.587, 1.587, 1.587, 1.586, 1.585, 1.585, 1.585, 1.585, 1.585, 1.585, 1.585, 1.585, 1.585, 1.585, 1.584, 1.584, 1.583, 1.583, 1.583, 1.58, 1.58, 1.58, 1.58, 1.58, 1.58, 1.58, 1.584, 1.585, 1.586, 1.587, 1.591, 1.591, 1.592, 1.591, 1.591, 1.59, 1.59, 1.587, 1.587, 1.587, 1.587, 1.587, 1.587, 1.587, 1.587, 1.587, 1.587, 1.587, 1.587, 1.587, 1.587, 1.587, 1.586, 1.585, 1.585, 1.584, 1.584, 1.583, 1.583, 1.583, 1.583, 1.584, 1.585, 1.586, 1.587, 1.591, 1.591, 1.592, 1.592, 1.592, 1.592, 1.591, 1.587, 1.587, 1.586, 1.585, 1.584, 1.583, 1.583, 1.58, 1.579, 1.578, 1.577, 1.577, 1.576, 1.576, 1.576, 1.576, 1.576, 1.576, 1.577, 1.578, 1.579, 1.58, 1.583, 1.583, 1.58, 1.579, 1.578, 1.577, 1.577, 1.572, 1.571, 1.571, 1.57, 1.57, 1.57, 1.57, 1.57, 1.571, 1.571, 1.572, 1.572, 1.573, 1.573, 1.573, 1.572, 1.571, 1.571, 1.57, 1.569, 1.569, 1.568, 1.564, 1.563, 1.562, 1.562, 1.561, 1.56, 1.56, 1.557, 1.556, 1.555, 1.555, 1.554, 1.553, 1.553, 1.553, 1.553, 1.554, 1.555, 1.555, 1.556, 1.556, 1.557, 1.56, 1.561, 1.562, 1.562, 1.563, 1.562, 1.562, 1.561, 1.561, 1.56, 1.556, 1.555, 1.555, 1.554, 1.553, 1.552, 1.552, 1.551, 1.551, 1.548, 1.548, 1.551, 1.548, 1.548, 1.548, 1.548, 1.548, 1.548, 1.548, 1.548, 1.548, 1.548, 1.547, 1.547, 1.546, 1.546, 1.546, 1.545, 1.545, 1.545, 1.544, 1.544, 1.543, 1.542, 1.542, 1.539, 1.539, 1.539, 1.539, 1.539, 1.539, 1.539, 1.539, 1.539, 1.539, 1.539, 1.539, 1.539, 1.538, 1.538, 1.537, 1.537, 1.536, 1.535, 1.535, 1.534, 1.533, 1.533, 1.533, 1.533, 1.532, 1.532, 1.531, 1.531, 1.531, 1.531, 1.531, 1.528, 1.528, 1.528, 1.528, 1.528, 1.528, 1.528, 1.528, 1.528, 1.528, 1.528, 1.528, 1.531, 1.531, 1.531, 1.528, 1.528, 1.528, 1.527, 1.526, 1.526, 1.526, 1.526, 1.526, 1.526, 1.527, 1.527, 1.528, 1.528, 1.528, 1.528, 1.527, 1.526, 1.524, 1.523, 1.522, 1.521, 1.521, 1.521, 1.522, 1.522, 1.523, 1.524, 1.526, 1.527, 1.528, 1.528, 1.527, 1.527, 1.526, 1.525, 1.524, 1.523, 1.523, 1.522, 1.522, 1.523, 1.524, 1.524, 1.525, 1.526, 1.527, 1.527, 1.525, 1.524, 1.523, 1.52, 1.517, 1.516, 1.512, 1.512, 1.511, 1.511, 1.512, 1.512, 1.516, 1.517, 1.518
1.626, 1.625, 1.625, 1.621, 1.621, 1.621, 1.621, 1.621, 1.621, 1.621, 1.621, 1.62, 1.62, 1.619, 1.615, 1.615, 1.614, 1.611, 1.611, 1.614, 1.614, 1.614, 1.614, 1.614, 1.614, 1.611, 1.61, 1.609, 1.609, 1.609, 1.609, 1.609, 1.61, 1.614, 1.615, 1.615, 1.62, 1.62, 1.621, 1.621, 1.62, 1.62, 1.62, 1.615, 1.615, 1.611, 1.611, 1.61, 1.61, 1.611, 1.611, 1.611, 1.614, 1.614, 1.614, 1.614, 1.614, 1.611, 1.611, 1.61, 1.609, 1.609, 1.609, 1.609, 1.609, 1.609, 1.608, 1.608, 1.607, 1.607, 1.607, 1.607, 1.607, 1.607, 1.607, 1.607, 1.607, 1.607, 1.604, 1.603, 1.603, 1.603, 1.603, 1.603, 1.604, 1.607, 1.607, 1.608, 1.609, 1.61, 1.61, 1.61, 1.609, 1.609, 1.608, 1.607, 1.607, 1.608, 1.608, 1.609, 1.609, 1.609, 1.609, 1.609, 1.609, 1.608, 1.607, 1.604, 1.603, 1.602, 1.599, 1.598, 1.597, 1.596, 1.595, 1.592, 1.592, 1.591, 1.591, 1.59, 1.59, 1.59, 1.591, 1.592, 1.592, 1.592, 1.592, 1.592, 1.592, 1.592, 1.592, 1.592, 1.592, 1.592, 1.592, 1.592, 1.591, 1.591, 1.59, 1.59, 1.59, 1.587, 1.587, 1.587, 1.587, 1.586, 1.586, 1.586, 1.586, 1.585, 1.585, 1.585, 1.585, 1.585, 1.585, 1.585, 1.584, 1.583, 1.583, 1.583, 1.583, 1.58, 1.58, 1.58, 1.58, 1.58, 1.58, 1.58, 1.584, 1.585, 1.586, 1.587, 1.591, 1.591, 1.592, 1.592, 1.591, 1.59, 1.59, 1.587, 1.587, 1.587, 1.587, 1.587, 1.587, 1.587, 1.591, 1.591, 1.591, 1.591, 1.59, 1.59, 1.587, 1.587, 1.586, 1.585, 1.585, 1.584, 1.583, 1.583, 1.58, 1.58, 1.583, 1.583, 1.584, 1.585, 1.586, 1.587, 1.591, 1.592, 1.592, 1.592, 1.591, 1.591, 1.587, 1.587, 1.586, 1.585, 1.584, 1.583, 1.583, 1.583, 1.58, 1.579, 1.578, 1.578, 1.577, 1.576, 1.576, 1.576, 1.576, 1.577, 1.577, 1.578, 1.579, 1.583, 1.583, 1.583, 1.583, 1.58, 1.579, 1.578, 1.577, 1.572, 1.572, 1.571, 1.571, 1.571, 1.571, 1.571, 1.571, 1.571, 1.572, 1.572, 1.573, 1.573, 1.573, 1.573, 1.572, 1.571, 1.571, 1.57, 1.569, 1.569, 1.568, 1.568, 1.564, 1.563, 1.562, 1.561, 1.56, 1.56, 1.557, 1.556, 1.555, 1.555, 1.554, 1.553, 1.553, 1.553, 1.554, 1.555, 1.555, 1.556, 1.556, 1.557, 1.56, 1.561, 1.562, 1.562, 1.563, 1.563, 1.563, 1.563, 1.562, 1.562, 1.561, 1.557, 1.556, 1.555, 1.555, 1.554, 1.553, 1.552, 1.551, 1.551, 1.551, 1.551, 1.551, 1.551, 1.551, 1.551, 1.551, 1.551, 1.551, 1.548, 1.548, 1.548, 1.547, 1.546, 1.546, 1.545, 1.545, 1.544, 1.544, 1.544, 1.544, 1.544, 1.543, 1.542, 1.542, 1.542, 1.539, 1.539, 1.539, 1.539, 1.539, 1.539, 1.539, 1.539, 1.539, 1.539, 1.539, 1.539, 1.539, 1.539, 1.538, 1.538, 1.538, 1.537, 1.537, 1.536, 1.535, 1.535, 1.534, 1.533, 1.533, 1.533, 1.532, 1.531, 1.531, 1.531, 1.531, 1.531, 1.528, 1.528, 1.528, 1.528, 1.528, 1.528, 1.528, 1.528, 1.528, 1.531, 1.531, 1.531, 1.531, 1.531, 1.531, 1.528, 1.528, 1.528, 1.527, 1.526, 1.526, 1.526, 1.526, 1.526, 1.526, 1.527, 1.527, 1.528, 1.528, 1.528, 1.527, 1.526, 1.525, 1.524, 1.522, 1.521, 1.52, 1.52, 1.52, 1.521, 1.521, 1.522, 1.524, 1.525, 1.526, 1.527, 1.527, 1.526, 1.526, 1.525, 1.524, 1.523, 1.522, 1.522, 1.522, 1.522, 1.522, 1.523, 1.524, 1.525, 1.526, 1.527, 1.527, 1.526, 1.525, 1.524, 1.52, 1.519, 1.516, 1.516, 1.512, 1.512, 1.512, 1.512, 1.513, 1.516, 1.517, 1.518
1.63, 1.625, 1.625, 1.624, 1.621, 1.621, 1.624, 1.624, 1.624, 1.624, 1.621, 1.621, 1.62, 1.62, 1.615, 1.615, 1.614, 1.611, 1.611, 1.611, 1.611, 1.611, 1.611, 1.611, 1.611, 1.61, 1.61, 1.609, 1.609, 1.609, 1.609, 1.609, 1.61, 1.614, 1.615, 1.615, 1.62, 1.621, 1.621, 1.621, 1.621, 1.621, 1.62, 1.616, 1.615, 1.615, 1.611, 1.611, 1.611, 1.611, 1.611, 1.611, 1.614, 1.614, 1.614, 1.614, 1.614, 1.611, 1.611, 1.61, 1.609, 1.609, 1.609, 1.609, 1.609, 1.609, 1.609, 1.608, 1.607, 1.607, 1.607, 1.607, 1.607, 1.607, 1.607, 1.607, 1.607, 1.604, 1.603, 1.603, 1.602, 1.602, 1.602, 1.603, 1.603, 1.607, 1.608, 1.609, 1.61, 1.611, 1.611, 1.611, 1.61, 1.609, 1.609, 1.608, 1.608, 1.608, 1.609, 1.609, 1.609, 1.609, 1.609, 1.609, 1.609, 1.608, 1.607, 1.603, 1.603, 1.602, 1.599, 1.598, 1.597, 1.596, 1.596, 1.595, 1.592, 1.592, 1.591, 1.59, 1.59, 1.59, 1.591, 1.592, 1.592, 1.592, 1.592, 1.592, 1.592, 1.592, 1.592, 1.592, 1.592, 1.592, 1.592, 1.591, 1.591, 1.59, 1.59, 1.59, 1.59, 1.587, 1.587, 1.587, 1.587, 1.587, 1.587, 1.587, 1.586, 1.586, 1.586, 1.586, 1.585, 1.585, 1.585, 1.585, 1.584, 1.583, 1.583, 1.583, 1.583, 1.58, 1.58, 1.58, 1.58, 1.58, 1.58, 1.583, 1.584, 1.585, 1.586, 1.587, 1.591, 1.591, 1.592, 1.592, 1.591, 1.591, 1.591, 1.59, 1.59, 1.587, 1.587, 1.59, 1.59, 1.591, 1.591, 1.591, 1.591, 1.591, 1.591, 1.591, 1.59, 1.587, 1.586, 1.585, 1.585, 1.584, 1.583, 1.58, 1.58, 1.58, 1.58, 1.583, 1.584, 1.585, 1.586, 1.587, 1.591, 1.591, 1.592, 1.592, 1.591, 1.591, 1.587, 1.587, 1.586, 1.585, 1.584, 1.584, 1.584, 1.583, 1.583, 1.58, 1.579, 1.578, 1.578, 1.577, 1.577, 1.576, 1.576, 1.577, 1.578, 1.579, 1.58, 1.583, 1.583, 1.583, 1.583, 1.583, 1.58, 1.579, 1.578, 1.577, 1.572, 1.572, 1.572, 1.571, 1.571, 1.571, 1.571, 1.572, 1.572, 1.573, 1.573, 1.573, 1.573, 1.573, 1.572, 1.571, 1.571, 1.57, 1.57, 1.569, 1.569, 1.568, 1.564, 1.564, 1.563, 1.562, 1.561, 1.56, 1.557, 1.556, 1.555, 1.555, 1.554, 1.553, 1.553, 1.553, 1.554, 1.555, 1.556, 1.556, 1.557, 1.56, 1.561, 1.562, 1.563, 1.563, 1.564, 1.564, 1.564, 1.563, 1.563, 1.562, 1.562, 1.561, 1.557, 1.556, 1.555, 1.555, 1.554, 1.553, 1.552, 1.552, 1.551, 1.551, 1.551, 1.551, 1.551, 1.551, 1.551, 1.551, 1.551, 1.551, 1.548, 1.547, 1.546, 1.546, 1.545, 1.544, 1.544, 1.544, 1.544, 1.544, 1.544, 1.544, 1.543, 1.542, 1.542, 1.542, 1.539, 1.539, 1.539, 1.539, 1.538, 1.538, 1.538, 1.539, 1.539, 1.539, 1.539, 1.539, 1.539, 1.539, 1.539, 1.539, 1.538, 1.538, 1.538, 1.537, 1.537, 1.536, 1.535, 1.534, 1.533, 1.533, 1.532, 1.532, 1.531, 1.531, 1.531, 1.531, 1.531, 1.528, 1.528, 1.531, 1.531, 1.531, 1.532, 1.532, 1.532, 1.532, 1.531, 1.531, 1.531, 1.531, 1.531, 1.528, 1.528, 1.528, 1.527, 1.526, 1.525, 1.525, 1.525, 1.526, 1.526, 1.526, 1.527, 1.528, 1.528, 1.527, 1.526, 1.525, 1.524, 1.523, 1.522, 1.521, 1.52, 1.52, 1.52, 1.52, 1.521, 1.522, 1.523, 1.524, 1.525, 1.526, 1.526, 1.525, 1.525, 1.524, 1.523, 1.522, 1.521, 1.521, 1.521, 1.521, 1.522, 1.523, 1.524, 1.525, 1.526, 1.527, 1.527, 1.526, 1.525, 1.524, 1.52, 1.52, 1.516, 1.516, 1.513, 1.513, 1.513, 1.513, 1.516, 1.516, 1.517, 1.518
1.63, 1.629, 1.625, 1.625, 1.625, 1.625, 1.625, 1.625, 1.624, 1.624, 1.624, 1.621, 1.62, 1.62, 1.615, 1.615, 1.614, 1.611, 1.611, 1.611, 1.611, 1.611, 1.611, 1.611, 1.61, 1.61, 1.609, 1.609, 1.609, 1.609, 1.609, 1.609, 1.61, 1.614, 1.615, 1.619, 1.62, 1.621, 1.624, 1.624, 1.624, 1.621, 1.62, 1.62, 1.615, 1.615, 1.614, 1.611, 1.611, 1.611, 1.611, 1.611, 1.611, 1.614, 1.614, 1.614, 1.614, 1.611, 1.611, 1.61, 1.609, 1.609, 1.609, 1.609, 1.609, 1.609, 1.609, 1.608, 1.608, 1.607, 1.607, 1.607, 1.607, 1.607, 1.607, 1.607, 1.604, 1.603, 1.603, 1.602, 1.602, 1.602, 1.602, 1.602, 1.603, 1.607, 1.608, 1.609, 1.61, 1.611, 1.611, 1.611, 1.611, 1.61, 1.609, 1.609, 1.609, 1.609, 1.609, 1.609, 1.609, 1.609, 1.609, 1.609, 1.608, 1.608, 1.607, 1.604, 1.603, 1.602, 1.599, 1.598, 1.597, 1.597, 1.596, 1.596, 1.592, 1.592, 1.591, 1.591, 1.591, 1.591, 1.591, 1.592, 1.592, 1.592, 1.592, 1.592, 1.592, 1.592, 1.592, 1.592, 1.592, 1.592, 1.591, 1.591, 1.59, 1.59, 1.59, 1.59, 1.587, 1.587, 1.587, 1.587, 1.587, 1.587, 1.587, 1.587, 1.587, 1.587, 1.587, 1.586, 1.585, 1.585, 1.585, 1.585, 1.584, 1.583, 1.583, 1.583, 1.583, 1.58, 1.58, 1.58, 1.58, 1.58, 1.58, 1.583, 1.584, 1.585, 1.586, 1.587, 1.591, 1.591, 1.592, 1.592, 1.592, 1.592, 1.591, 1.591, 1.591, 1.59, 1.59, 1.591, 1.591, 1.591, 1.592, 1.592, 1.592, 1.592, 1.592, 1.591, 1.591, 1.587, 1.586, 1.585, 1.585, 1.584, 1.58, 1.58, 1.58, 1.58, 1.58, 1.58, 1.583, 1.584, 1.585, 1.586, 1.59, 1.591, 1.591, 1.591, 1.591, 1.59, 1.587, 1.587, 1.586, 1.585, 1.585, 1.585, 1.584, 1.584, 1.583, 1.583, 1.58, 1.579, 1.578, 1.578, 1.577, 1.577, 1.577, 1.578, 1.578, 1.579, 1.583, 1.583, 1.583, 1.584, 1.584, 1.583, 1.58, 1.579, 1.578, 1.577, 1.573, 1.573, 1.572, 1.572, 1.572, 1.572, 1.572, 1.572, 1.573, 1.573, 1.573, 1.573, 1.573, 1.573, 1.572, 1.571, 1.571, 1.571, 1.57, 1.569, 1.569, 1.568, 1.567, 1.564, 1.563, 1.562, 1.561, 1.561, 1.557, 1.556, 1.555, 1.555, 1.554, 1.554, 1.554, 1.554, 1.555, 1.555, 1.556, 1.557, 1.56, 1.561, 1.562, 1.563, 1.564, 1.564, 1.567, 1.567, 1.567, 1.567, 1.564, 1.563, 1.563, 1.562, 1.561, 1.561, 1.556, 1.555, 1.555, 1.554, 1.553, 1.553, 1.552, 1.552, 1.552, 1.552, 1.552, 1.552, 1.552, 1.552, 1.551, 1.551, 1.547, 1.547, 1.546, 1.545, 1.544, 1.543, 1.543, 1.543, 1.543, 1.543, 1.543, 1.543, 1.543, 1.542, 1.542, 1.542, 1.539, 1.539, 1.538, 1.538, 1.537, 1.537, 1.537, 1.538, 1.538, 1.539, 1.539, 1.539, 1.539, 1.539, 1.542, 1.542, 1.542, 1.542, 1.539, 1.538, 1.538, 1.537, 1.536, 1.535, 1.534, 1.533, 1.532, 1.532, 1.531, 1.531, 1.531, 1.531, 1.531, 1.531, 1.531, 1.531, 1.532, 1.532, 1.532, 1.532, 1.532, 1.532, 1.532, 1.532, 1.532, 1.531, 1.531, 1.528, 1.528, 1.527, 1.526, 1.525, 1.525, 1.524, 1.525, 1.526, 1.526, 1.526, 1.527, 1.528, 1.528, 1.527, 1.526, 1.525, 1.524, 1.523, 1.521, 1.52, 1.52, 1.52, 1.52, 1.52, 1.52, 1.521, 1.522, 1.524, 1.524, 1.525, 1.525, 1.524, 1.523, 1.522, 1.521, 1.521, 1.52, 1.52, 1.52, 1.52, 1.521, 1.522, 1.524, 1.525, 1.526, 1.527, 1.527, 1.526, 1.525, 1.524, 1.521, 1.52, 1.516, 1.516, 1.516, 1.513, 1.513, 1.513, 1.516, 1.516, 1.517, 1.518
1.63, 1.63, 1.629, 1.626, 1.625, 1.625, 1.625, 1.625, 1.625, 1.625, 1.625, 1.621, 1.621, 1.62, 1.615, 1.615, 1.614, 1.611, 1.611, 1.611, 1.611, 1.611, 1.61, 1.61, 1.61, 1.609, 1.609, 1.608, 1.608, 1.608, 1.609, 1.609, 1.61, 1.614, 1.615, 1.62, 1.62, 1.621, 1.624, 1.624, 1.624, 1.624, 1.62, 1.62, 1.616, 1.615, 1.615, 1.614, 1.611, 1.611, 1.611, 1.611, 1.611, 1.614, 1.614, 1.614, 1.611, 1.611, 1.61, 1.61, 1.609, 1.609, 1.609, 1.609, 1.609, 1.609, 1.609, 1.609, 1.608, 1.607, 1.607, 1.607, 1.607, 1.607, 1.607, 1.604, 1.603, 1.603, 1.602, 1.599, 1.599, 1.602, 1.602, 1.602, 1.602, 1.607, 1.607, 1.61, 1.611, 1.614, 1.614, 1.614, 1.611, 1.61, 1.61, 1.609, 1.609, 1.609, 1.609, 1.609, 1.609, 1.609, 1.609, 1.609, 1.608, 1.608, 1.607, 1.604, 1.603, 1.602, 1.602, 1.599, 1.598, 1.597, 1.597, 1.596, 1.596, 1.592, 1.592, 1.592, 1.592, 1.592, 1.592, 1.592, 1.592, 1.592, 1.592, 1.592, 1.592, 1.592, 1.592, 1.592, 1.592, 1.591, 1.591, 1.59, 1.59, 1.59, 1.59, 1.587, 1.587, 1.587, 1.587, 1.587, 1.587, 1.587, 1.587, 1.587, 1.587, 1.587, 1.587, 1.586, 1.586, 1.585, 1.585, 1.585, 1.584, 1.583, 1.583, 1.583, 1.583, 1.58, 1.58, 1.58, 1.58, 1.58, 1.58, 1.583, 1.584, 1.585, 1.586, 1.587, 1.591, 1.591, 1.592, 1.592, 1.592, 1.592, 1.592, 1.592, 1.591, 1.591, 1.591, 1.591, 1.592, 1.592, 1.592, 1.592, 1.592, 1.592, 1.592, 1.591, 1.591, 1.587, 1.586, 1.585, 1.584, 1.584, 1.58, 1.58, 1.58, 1.58, 1.58, 1.58, 1.58, 1.584, 1.585, 1.585, 1.586, 1.591, 1.591, 1.59, 1.59, 1.587, 1.587, 1.587, 1.586, 1.585, 1.585, 1.585, 1.585, 1.584, 1.584, 1.583, 1.583, 1.58, 1.579, 1.579, 1.578, 1.578, 1.578, 1.578, 1.579, 1.58, 1.583, 1.583, 1.583, 1.584, 1.584, 1.583, 1.583, 1.58, 1.579, 1.578, 1.577, 1.573, 1.573, 1.573, 1.573, 1.573, 1.573, 1.573, 1.573, 1.573, 1.573, 1.573, 1.573, 1.573, 1.572, 1.572, 1.571, 1.571, 1.57, 1.57, 1.569, 1.568, 1.567, 1.567, 1.564, 1.563, 1.562, 1.561, 1.557, 1.556, 1.556, 1.555, 1.555, 1.555, 1.555, 1.555, 1.555, 1.556, 1.557, 1.56, 1.561, 1.562, 1.563, 1.564, 1.564, 1.567, 1.568, 1.568, 1.568, 1.568, 1.567, 1.564, 1.564, 1.563, 1.562, 1.561, 1.561, 1.556, 1.556, 1.555, 1.554, 1.554, 1.553, 1.553, 1.553, 1.553, 1.553, 1.553, 1.553, 1.552, 1.551, 1.551, 1.547, 1.546, 1.545, 1.544, 1.543, 1.543, 1.542, 1.542, 1.542, 1.542, 1.542, 1.542, 1.542, 1.542, 1.542, 1.539, 1.539, 1.538, 1.538, 1.537, 1.537, 1.537, 1.537, 1.537, 1.538, 1.538, 1.539, 1.539, 1.539, 1.542, 1.542, 1.542, 1.542, 1.542, 1.542, 1.542, 1.539, 1.538, 1.537, 1.535, 1.534, 1.533, 1.532, 1.531, 1.531, 1.531, 1.531, 1.531, 1.531, 1.531, 1.531, 1.532, 1.532, 1.533, 1.533, 1.533, 1.533, 1.533, 1.533, 1.533, 1.532, 1.532, 1.531, 1.528, 1.528, 1.527, 1.526, 1.525, 1.524, 1.524, 1.525, 1.526, 1.526, 1.527, 1.527, 1.528, 1.528, 1.527, 1.526, 1.524, 1.523, 1.522, 1.521, 1.52, 1.519, 1.519, 1.519, 1.519, 1.52, 1.521, 1.522, 1.523, 1.524, 1.524, 1.524, 1.523, 1.522, 1.521, 1.52, 1.52, 1.52, 1.52, 1.52, 1.52, 1.521, 1.522, 1.524, 1.524, 1.526, 1.527, 1.527, 1.526, 1.525, 1.524, 1.521, 1.521, 1.517, 1.516, 1.516, 1.516, 1.516, 1.516, 1.516, 1.516, 1.517, 1.518
1.631, 1.63, 1.63, 1.626, 1.626, 1.626, 1.626, 1.626, 1.626, 1.625, 1.625, 1.624, 1.62, 1.62, 1.615, 1.615, 1.614, 1.611, 1.611, 1.611, 1.61, 1.61, 1.61, 1.609, 1.609, 1.608, 1.608, 1.607, 1.607, 1.607, 1.608, 1.609, 1.61, 1.614, 1.614, 1.62, 1.62, 1.624, 1.624, 1.624, 1.624, 1.624, 1.624, 1.62, 1.62, 1.615, 1.615, 1.614, 1.614, 1.614, 1.611, 1.611, 1.611, 1.614, 1.614, 1.614, 1.611, 1.611, 1.61, 1.61, 1.609, 1.609, 1.609, 1.609, 1.609, 1.609, 1.609, 1.609, 1.608, 1.608, 1.607, 1.607, 1.607, 1.607, 1.604, 1.603, 1.603, 1.602, 1.599, 1.599, 1.599, 1.599, 1.599, 1.602, 1.603, 1.603, 1.607, 1.61, 1.611, 1.614, 1.614, 1.614, 1.614, 1.611, 1.61, 1.61, 1.61, 1.61, 1.61, 1.609, 1.609, 1.609, 1.609, 1.609, 1.608, 1.607, 1.607, 1.604, 1.603, 1.602, 1.602, 1.599, 1.598, 1.597, 1.597, 1.597, 1.596, 1.592, 1.592, 1.592, 1.592, 1.592, 1.592, 1.592, 1.592, 1.592, 1.592, 1.592, 1.592, 1.592, 1.592, 1.592, 1.591, 1.591, 1.59, 1.587, 1.587, 1.587, 1.587, 1.587, 1.587, 1.587, 1.587, 1.587, 1.587, 1.587, 1.59, 1.59, 1.59, 1.59, 1.587, 1.587, 1.586, 1.585, 1.585, 1.585, 1.584, 1.583, 1.583, 1.583, 1.583, 1.583, 1.58, 1.58, 1.58, 1.58, 1.58, 1.583, 1.584, 1.585, 1.586, 1.587, 1.591, 1.591, 1.592, 1.592, 1.592, 1.592, 1.592, 1.592, 1.592, 1.592, 1.592, 1.592, 1.592, 1.592, 1.592, 1.595, 1.595, 1.595, 1.592, 1.591, 1.591, 1.586, 1.585, 1.585, 1.584, 1.583, 1.58, 1.58, 1.58, 1.579, 1.579, 1.579, 1.58, 1.58, 1.584, 1.585, 1.586, 1.587, 1.59, 1.59, 1.587, 1.587, 1.587, 1.587, 1.586, 1.586, 1.585, 1.585, 1.585, 1.585, 1.584, 1.584, 1.583, 1.583, 1.583, 1.579, 1.579, 1.578, 1.578, 1.579, 1.579, 1.58, 1.583, 1.583, 1.583, 1.584, 1.584, 1.584, 1.583, 1.58, 1.579, 1.578, 1.577, 1.576, 1.573, 1.573, 1.573, 1.573, 1.573, 1.573, 1.573, 1.573, 1.573, 1.573, 1.573, 1.573, 1.573, 1.572, 1.571, 1.571, 1.571, 1.57, 1.57, 1.569, 1.568, 1.568, 1.567, 1.563, 1.562, 1.561, 1.56, 1.557, 1.556, 1.555, 1.555, 1.555, 1.555, 1.555, 1.556, 1.556, 1.557, 1.56, 1.561, 1.562, 1.563, 1.564, 1.567, 1.568, 1.569, 1.569, 1.569, 1.569, 1.568, 1.568, 1.567, 1.564, 1.563, 1.562, 1.561, 1.56, 1.556, 1.556, 1.555, 1.555, 1.554, 1.554, 1.553, 1.553, 1.553, 1.553, 1.553, 1.553, 1.552, 1.551, 1.547, 1.546, 1.545, 1.544, 1.543, 1.542, 1.539, 1.539, 1.539, 1.539, 1.539, 1.542, 1.542, 1.542, 1.542, 1.539, 1.539, 1.538, 1.537, 1.536, 1.536, 1.536, 1.536, 1.536, 1.537, 1.538, 1.539, 1.539, 1.539, 1.542, 1.542, 1.543, 1.543, 1.543, 1.543, 1.543, 1.539, 1.538, 1.537, 1.536, 1.534, 1.533, 1.532, 1.531, 1.528, 1.528, 1.531, 1.531, 1.531, 1.531, 1.532, 1.532, 1.533, 1.533, 1.533, 1.533, 1.533, 1.533, 1.533, 1.533, 1.533, 1.532, 1.532, 1.528, 1.528, 1.527, 1.526, 1.525, 1.524, 1.524, 1.525, 1.526, 1.526, 1.527, 1.528, 1.528, 1.528, 1.528, 1.525, 1.524, 1.523, 1.522, 1.52, 1.519, 1.519, 1.518, 1.518, 1.519, 1.519, 1.52, 1.521, 1.522, 1.523, 1.523, 1.523, 1.522, 1.522, 1.521, 1.52, 1.52, 1.519, 1.519, 1.519, 1.52, 1.521, 1.522, 1.524, 1.524, 1.526, 1.527, 1.527, 1.526, 1.525, 1.524, 1.521, 1.52, 1.517, 1.517, 1.516, 1.516, 1.516, 1.516, 1.516, 1.516, 1.517, 1.518
1.634, 1.631, 1.63, 1.63, 1.629, 1.629, 1.629, 1.629, 1.629, 1.629, 1.625, 1.625, 1.621, 1.62, 1.616, 1.615, 1.614, 1.611, 1.611, 1.61, 1.61, 1.609, 1.609, 1.609, 1.608, 1.608, 1.607, 1.607, 1.607, 1.607, 1.608, 1.609, 1.61, 1.611, 1.614, 1.62, 1.62, 1.624, 1.624, 1.624, 1.624, 1.624, 1.624, 1.62, 1.62, 1.616, 1.615, 1.614, 1.614, 1.614, 1.614, 1.614, 1.614, 1.614, 1.611, 1.611, 1.611, 1.611, 1.611, 1.61, 1.609, 1.609, 1.609, 1.609, 1.609, 1.609, 1.609, 1.609, 1.609, 1.608, 1.607, 1.607, 1.607, 1.607, 1.603, 1.603, 1.602, 1.602, 1.598, 1.598, 1.598, 1.598, 1.598, 1.602, 1.602, 1.603, 1.608, 1.609, 1.61, 1.614, 1.614, 1.614, 1.614, 1.611, 1.611, 1.611, 1.611, 1.61, 1.61, 1.61, 1.61, 1.61, 1.609, 1.609, 1.608, 1.607, 1.607, 1.604, 1.603, 1.602, 1.602, 1.602, 1.598, 1.597, 1.597, 1.597, 1.596, 1.596, 1.592, 1.592, 1.592, 1.592, 1.592, 1.592, 1.592, 1.592, 1.592, 1.592, 1.592, 1.592, 1.592, 1.591, 1.591, 1.59, 1.587, 1.587, 1.587, 1.587, 1.587, 1.587, 1.587, 1.587, 1.587, 1.587, 1.587, 1.59, 1.59, 1.59, 1.59, 1.59, 1.59, 1.587, 1.586, 1.586, 1.585, 1.585, 1.584, 1.584, 1.583, 1.583, 1.583, 1.583, 1.583, 1.58, 1.58, 1.583, 1.583, 1.583, 1.584, 1.585, 1.586, 1.587, 1.591, 1.591, 1.592, 1.592, 1.592, 1.592, 1.592, 1.592, 1.592, 1.592, 1.592, 1.592, 1.592, 1.596, 1.596, 1.596, 1.595, 1.595, 1.592, 1.592, 1.591, 1.586, 1.585, 1.585, 1.584, 1.58, 1.58, 1.579, 1.579, 1.578, 1.578, 1.579, 1.579, 1.58, 1.58, 1.584, 1.585, 1.586, 1.587, 1.587, 1.587, 1.587, 1.587, 1.587, 1.586, 1.586, 1.585, 1.585, 1.585, 1.586, 1.585, 1.584, 1.584, 1.583, 1.583, 1.58, 1.579, 1.579, 1.579, 1.579, 1.58, 1.58, 1.58, 1.583, 1.583, 1.584, 1.584, 1.584, 1.583, 1.583, 1.58, 1.579, 1.578, 1.577, 1.576, 1.573, 1.573, 1.573, 1.573, 1.573, 1.573, 1.573, 1.573, 1.573, 1.573, 1.573, 1.573, 1.572, 1.572, 1.571, 1.571, 1.571, 1.57, 1.57, 1.569, 1.568, 1.568, 1.564, 1.563, 1.562, 1.561, 1.557, 1.556, 1.556, 1.556, 1.555, 1.555, 1.555, 1.556, 1.556, 1.56, 1.561, 1.562, 1.563, 1.564, 1.567, 1.568, 1.569, 1.57, 1.57, 1.57, 1.569, 1.569, 1.568, 1.568, 1.567, 1.564, 1.563, 1.562, 1.561, 1.56, 1.557, 1.556, 1.555, 1.555, 1.555, 1.555, 1.554, 1.554, 1.554, 1.553, 1.553, 1.552, 1.552, 1.547, 1.546, 1.544, 1.543, 1.542, 1.539, 1.539, 1.539, 1.539, 1.539, 1.539, 1.539, 1.542, 1.542, 1.542, 1.539, 1.538, 1.537, 1.536, 1.535, 1.535, 1.535, 1.535, 1.536, 1.537, 1.537, 1.538, 1.539, 1.539, 1.542, 1.542, 1.543, 1.544, 1.544, 1.544, 1.543, 1.543, 1.539, 1.538, 1.536, 1.535, 1.533, 1.532, 1.528, 1.528, 1.528, 1.528, 1.531, 1.531, 1.532, 1.532, 1.533, 1.533, 1.533, 1.533, 1.533, 1.533, 1.533, 1.533, 1.533, 1.533, 1.533, 1.532, 1.531, 1.528, 1.527, 1.526, 1.525, 1.525, 1.525, 1.525, 1.526, 1.526, 1.527, 1.528, 1.528, 1.528, 1.528, 1.524, 1.524, 1.522, 1.521, 1.52, 1.519, 1.518, 1.518, 1.518, 1.518, 1.519, 1.52, 1.521, 1.522, 1.522, 1.522, 1.522, 1.522, 1.521, 1.52, 1.52, 1.52, 1.519, 1.519, 1.519, 1.52, 1.521, 1.522, 1.523, 1.524, 1.526, 1.527, 1.528, 1.525, 1.524, 1.524, 1.52, 1.52, 1.517, 1.516, 1.516, 1.516, 1.516, 1.516, 1.516, 1.516, 1.517, 1.518
1.634, 1.634, 1.63, 1.63, 1.63, 1.63, 1.63, 1.629, 1.629, 1.629, 1.625, 1.625, 1.624, 1.62, 1.62, 1.615, 1.615, 1.611, 1.611, 1.61, 1.609, 1.609, 1.608, 1.608, 1.608, 1.607, 1.607, 1.607, 1.607, 1.607, 1.608, 1.609, 1.61, 1.611, 1.614, 1.619, 1.62, 1.624, 1.624, 1.624, 1.624, 1.625, 1.624, 1.62, 1.62, 1.616, 1.615, 1.614, 1.614, 1.614, 1.614, 1.614, 1.614, 1.614, 1.611, 1.611, 1.611, 1.611, 1.611, 1.61, 1.609, 1.609, 1.609, 1.609, 1.609, 1.609, 1.609, 1.609, 1.609, 1.608, 1.607, 1.607, 1.607, 1.604, 1.603, 1.603, 1.602, 1.598, 1.598, 1.597, 1.597, 1.597, 1.598, 1.598, 1.602, 1.603, 1.608, 1.609, 1.61, 1.614, 1.614, 1.614, 1.614, 1.611, 1.611, 1.611, 1.611, 1.611, 1.611, 1.611, 1.611, 1.61, 1.609, 1.609, 1.608, 1.607, 1.607, 1.603, 1.603, 1.602, 1.602, 1.602, 1.598, 1.598, 1.597, 1.597, 1.596, 1.596, 1.592, 1.592, 1.592, 1.592, 1.592, 1.592, 1.592, 1.592, 1.592, 1.592, 1.592, 1.592, 1.592, 1.591, 1.59, 1.59, 1.587, 1.587, 1.587, 1.587, 1.587, 1.587, 1.587, 1.587, 1.587, 1.587, 1.587, 1.59, 1.59, 1.59, 1.59, 1.59, 1.59, 1.59, 1.587, 1.586, 1.586, 1.585, 1.585, 1.585, 1.584, 1.584, 1.583, 1.583, 1.583, 1.583, 1.583, 1.583, 1.583, 1.583, 1.584, 1.585, 1.586, 1.587, 1.591, 1.591, 1.592, 1.595, 1.595, 1.595, 1.596, 1.596, 1.596, 1.596, 1.596, 1.596, 1.596, 1.596, 1.596, 1.596, 1.596, 1.596, 1.595, 1.591, 1.591, 1.59, 1.585, 1.585, 1.584, 1.58, 1.58, 1.579, 1.578, 1.578, 1.578, 1.578, 1.578, 1.579, 1.58, 1.584, 1.585, 1.586, 1.587, 1.587, 1.587, 1.587, 1.587, 1.587, 1.586, 1.586, 1.585, 1.585, 1.585, 1.586, 1.585, 1.585, 1.584, 1.583, 1.583, 1.58, 1.58, 1.58, 1.58, 1.58, 1.58, 1.58, 1.58, 1.583, 1.583, 1.584, 1.584, 1.584, 1.583, 1.583, 1.58, 1.579, 1.578, 1.578, 1.577, 1.573, 1.573, 1.573, 1.573, 1.573, 1.573, 1.573, 1.573, 1.573, 1.573, 1.573, 1.573, 1.573, 1.572, 1.572, 1.572, 1.571, 1.571, 1.57, 1.57, 1.569, 1.568, 1.568, 1.563, 1.562, 1.561, 1.56, 1.557, 1.557, 1.556, 1.556, 1.556, 1.556, 1.556, 1.557, 1.561, 1.561, 1.562, 1.563, 1.564, 1.568, 1.569, 1.569, 1.57, 1.571, 1.571, 1.57, 1.57, 1.569, 1.568, 1.568, 1.567, 1.563, 1.563, 1.562, 1.561, 1.56, 1.557, 1.556, 1.556, 1.555, 1.555, 1.555, 1.555, 1.555, 1.554, 1.553, 1.553, 1.552, 1.547, 1.546, 1.544, 1.543, 1.542, 1.539, 1.539, 1.539, 1.539, 1.539, 1.539, 1.539, 1.539, 1.542, 1.542, 1.539, 1.538, 1.537, 1.536, 1.535, 1.535, 1.535, 1.535, 1.536, 1.536, 1.537, 1.538, 1.539, 1.539, 1.542, 1.542, 1.543, 1.544, 1.544, 1.544, 1.543, 1.543, 1.539, 1.539, 1.536, 1.535, 1.533, 1.532, 1.528, 1.528, 1.528, 1.528, 1.528, 1.531, 1.532, 1.532, 1.533, 1.533, 1.533, 1.533, 1.533, 1.533, 1.533, 1.533, 1.533, 1.533, 1.533, 1.532, 1.532, 1.528, 1.528, 1.527, 1.526, 1.526, 1.526, 1.526, 1.527, 1.527, 1.528, 1.528, 1.528, 1.528, 1.527, 1.524, 1.523, 1.522, 1.521, 1.52, 1.519, 1.518, 1.518, 1.518, 1.518, 1.519, 1.52, 1.521, 1.522, 1.522, 1.522, 1.522, 1.522, 1.521, 1.52, 1.52, 1.52, 1.519, 1.519, 1.52, 1.52, 1.521, 1.522, 1.523, 1.524, 1.525, 1.525, 1.524, 1.524, 1.523, 1.522, 1.52, 1.52, 1.516, 1.516, 1.516, 1.516, 1.516, 1.516, 1.516, 1.516, 1.517, 1.518
1.634, 1.634, 1.631, 1.631, 1.631, 1.63, 1.63, 1.63, 1.63, 1.629, 1.629, 1.625, 1.625, 1.62, 1.62, 1.615, 1.615, 1.611, 1.61, 1.609, 1.609, 1.608, 1.608, 1.607, 1.607, 1.607, 1.607, 1.607, 1.607, 1.607, 1.608, 1.609, 1.61, 1.611, 1.615, 1.619, 1.62, 1.624, 1.624, 1.624, 1.625, 1.624, 1.624, 1.62, 1.62, 1.616, 1.615, 1.615, 1.614, 1.614, 1.614, 1.614, 1.614, 1.614, 1.614, 1.614, 1.611, 1.611, 1.611, 1.61, 1.609, 1.609, 1.609, 1.609, 1.609, 1.609, 1.609, 1.609, 1.609, 1.608, 1.608, 1.607, 1.607, 1.604, 1.603, 1.602, 1.599, 1.598, 1.597, 1.597, 1.597, 1.597, 1.597, 1.597, 1.602, 1.602, 1.608, 1.609, 1.61, 1.614, 1.614, 1.614, 1.614, 1.614, 1.611, 1.611, 1.611, 1.611, 1.611, 1.611, 1.611, 1.61, 1.609, 1.609, 1.608, 1.607, 1.607, 1.604, 1.603, 1.602, 1.602, 1.602, 1.599, 1.598, 1.597, 1.597, 1.597, 1.596, 1.595, 1.592, 1.592, 1.592, 1.592, 1.592, 1.592, 1.592, 1.592, 1.592, 1.592, 1.592, 1.592, 1.591, 1.59, 1.587, 1.587, 1.587, 1.587, 1.587, 1.587, 1.587, 1.587, 1.587, 1.587, 1.587, 1.59, 1.59, 1.59, 1.59, 1.591, 1.59, 1.59, 1.59, 1.59, 1.587, 1.586, 1.586, 1.586, 1.585, 1.585, 1.584, 1.584, 1.584, 1.583, 1.583, 1.583, 1.583, 1.583, 1.583, 1.584, 1.585, 1.586, 1.587, 1.591, 1.591, 1.592, 1.595, 1.596, 1.596, 1.596, 1.596, 1.597, 1.597, 1.597, 1.597, 1.597, 1.597, 1.597, 1.597, 1.597, 1.596, 1.596, 1.591, 1.591, 1.586, 1.585, 1.585, 1.584, 1.58, 1.579, 1.578, 1.578, 1.577, 1.577, 1.577, 1.578, 1.578, 1.579, 1.58, 1.584, 1.585, 1.586, 1.587, 1.587, 1.587, 1.587, 1.587, 1.586, 1.586, 1.585, 1.585, 1.585, 1.586, 1.585, 1.585, 1.584, 1.584, 1.583, 1.583, 1.58, 1.58, 1.58, 1.58, 1.58, 1.58, 1.58, 1.583, 1.583, 1.584, 1.584, 1.583, 1.583, 1.583, 1.583, 1.58, 1.579, 1.578, 1.577, 1.576, 1.573, 1.573, 1.573, 1.573, 1.573, 1.573, 1.573, 1.573, 1.573, 1.573, 1.573, 1.573, 1.573, 1.573, 1.572, 1.572, 1.572, 1.571, 1.57, 1.57, 1.569, 1.568, 1.567, 1.563, 1.562, 1.561, 1.56, 1.557, 1.557, 1.557, 1.557, 1.557, 1.557, 1.56, 1.561, 1.562, 1.563, 1.563, 1.567, 1.568, 1.569, 1.57, 1.571, 1.571, 1.571, 1.571, 1.57, 1.57, 1.569, 1.568, 1.568, 1.567, 1.563, 1.562, 1.562, 1.561, 1.56, 1.557, 1.557, 1.556, 1.556, 1.556, 1.555, 1.555, 1.555, 1.554, 1.553, 1.552, 1.547, 1.546, 1.544, 1.543, 1.539, 1.539, 1.538, 1.538, 1.538, 1.538, 1.539, 1.539, 1.539, 1.542, 1.542, 1.539, 1.538, 1.537, 1.536, 1.535, 1.535, 1.535, 1.535, 1.535, 1.536, 1.537, 1.538, 1.539, 1.542, 1.542, 1.542, 1.543, 1.544, 1.544, 1.544, 1.543, 1.543, 1.539, 1.539, 1.535, 1.534, 1.533, 1.532, 1.528, 1.528, 1.528, 1.528, 1.528, 1.531, 1.532, 1.533, 1.533, 1.533, 1.534, 1.534, 1.534, 1.534, 1.533, 1.533, 1.533, 1.533, 1.533, 1.532, 1.532, 1.528, 1.528, 1.527, 1.527, 1.526, 1.526, 1.527, 1.527, 1.528, 1.528, 1.528, 1.528, 1.528, 1.527, 1.524, 1.524, 1.522, 1.521, 1.52, 1.519, 1.518, 1.518, 1.519, 1.519, 1.52, 1.52, 1.521, 1.522, 1.522, 1.522, 1.522, 1.522, 1.521, 1.52, 1.52, 1.52, 1.52, 1.52, 1.52, 1.521, 1.521, 1.522, 1.523, 1.524, 1.524, 1.524, 1.523, 1.523, 1.522, 1.521, 1.52, 1.519, 1.516, 1.516, 1.516, 1.516, 1.516, 1.516, 1.516, 1.517, 1.518, 1.519
1.634, 1.634, 1.634, 1.631, 1.631, 1.631, 1.631, 1.631, 1.63, 1.63, 1.629, 1.625, 1.625, 1.62, 1.62, 1.615, 1.615, 1.611, 1.61, 1.609, 1.608, 1.607, 1.607, 1.607, 1.607, 1.604, 1.604, 1.604, 1.604, 1.607, 1.607, 1.608, 1.609, 1.61, 1.615, 1.619, 1.62, 1.62, 1.624, 1.624, 1.625, 1.624, 1.624, 1.62, 1.62, 1.616, 1.615, 1.615, 1.614, 1.614, 1.614, 1.614, 1.614, 1.614, 1.614, 1.614, 1.611, 1.611, 1.611, 1.61, 1.609, 1.609, 1.609, 1.609, 1.609, 1.609, 1.609, 1.609, 1.609, 1.608, 1.608, 1.607, 1.607, 1.603, 1.603, 1.602, 1.598, 1.598, 1.597, 1.596, 1.596, 1.597, 1.597, 1.598, 1.598, 1.603, 1.603, 1.608, 1.611, 1.611, 1.614, 1.614, 1.614, 1.614, 1.611, 1.611, 1.611, 1.611, 1.611, 1.611, 1.611, 1.61, 1.609, 1.609, 1.608, 1.607, 1.607, 1.604, 1.603, 1.603, 1.602, 1.602, 1.599, 1.598, 1.598, 1.597, 1.597, 1.596, 1.595, 1.595, 1.592, 1.592, 1.595, 1.595, 1.595, 1.595, 1.595, 1.595, 1.592, 1.592, 1.592, 1.591, 1.59, 1.587, 1.587, 1.587, 1.587, 1.587, 1.587, 1.587, 1.587, 1.587, 1.587, 1.587, 1.59, 1.59, 1.591, 1.591, 1.591, 1.591, 1.591, 1.591, 1.59, 1.59, 1.59, 1.587, 1.587, 1.586, 1.586, 1.586, 1.585, 1.585, 1.584, 1.584, 1.584, 1.583, 1.583, 1.584, 1.584, 1.585, 1.586, 1.587, 1.591, 1.591, 1.592, 1.596, 1.596, 1.597, 1.597, 1.597, 1.597, 1.597, 1.597, 1.597, 1.597, 1.597, 1.597, 1.597, 1.597, 1.596, 1.596, 1.592, 1.591, 1.586, 1.585, 1.585, 1.584, 1.58, 1.579, 1.578, 1.577, 1.577, 1.576, 1.576, 1.577, 1.578, 1.579, 1.58, 1.584, 1.585, 1.586, 1.587, 1.587, 1.587, 1.587, 1.587, 1.586, 1.586, 1.585, 1.585, 1.585, 1.585, 1.585, 1.585, 1.585, 1.584, 1.583, 1.583, 1.58, 1.58, 1.58, 1.58, 1.58, 1.58, 1.58, 1.583, 1.583, 1.583, 1.583, 1.583, 1.583, 1.583, 1.583, 1.58, 1.579, 1.578, 1.577, 1.577, 1.576, 1.576, 1.576, 1.573, 1.573, 1.573, 1.573, 1.573, 1.573, 1.573, 1.573, 1.573, 1.573, 1.573, 1.573, 1.573, 1.572, 1.572, 1.571, 1.571, 1.57, 1.569, 1.568, 1.563, 1.562, 1.562, 1.561, 1.56, 1.557, 1.557, 1.557, 1.557, 1.557, 1.561, 1.561, 1.562, 1.563, 1.564, 1.568, 1.569, 1.57, 1.571, 1.572, 1.572, 1.572, 1.572, 1.571, 1.57, 1.57, 1.569, 1.568, 1.568, 1.567, 1.563, 1.562, 1.562, 1.561, 1.56, 1.557, 1.557, 1.557, 1.556, 1.556, 1.556, 1.555, 1.554, 1.553, 1.552, 1.547, 1.546, 1.544, 1.543, 1.539, 1.539, 1.538, 1.537, 1.537, 1.538, 1.538, 1.539, 1.539, 1.542, 1.542, 1.539, 1.538, 1.537, 1.536, 1.535, 1.535, 1.535, 1.535, 1.535, 1.536, 1.537, 1.538, 1.539, 1.542, 1.542, 1.542, 1.543, 1.544, 1.544, 1.543, 1.543, 1.542, 1.539, 1.538, 1.535, 1.534, 1.533, 1.532, 1.528, 1.528, 1.528, 1.528, 1.528, 1.531, 1.532, 1.533, 1.533, 1.534, 1.534, 1.534, 1.534, 1.534, 1.534, 1.534, 1.533, 1.533, 1.533, 1.533, 1.532, 1.531, 1.528, 1.528, 1.528, 1.527, 1.527, 1.528, 1.528, 1.528, 1.528, 1.528, 1.528, 1.528, 1.528, 1.524, 1.524, 1.523, 1.522, 1.521, 1.52, 1.519, 1.519, 1.52, 1.52, 1.52, 1.521, 1.521, 1.522, 1.522, 1.522, 1.522, 1.521, 1.521, 1.52, 1.52, 1.52, 1.52, 1.52, 1.521, 1.522, 1.522, 1.523, 1.523, 1.523, 1.523, 1.522, 1.522, 1.522, 1.521, 1.52, 1.519, 1.518, 1.516, 1.516, 1.516, 1.516, 1.516, 1.516, 1.517, 1.518, 1.519, 1.52
1.634, 1.634, 1.634, 1.631, 1.631, 1.631, 1.631, 1.631, 1.631, 1.63, 1.63, 1.625, 1.625, 1.62, 1.62, 1.615, 1.615, 1.611, 1.61, 1.609, 1.608, 1.607, 1.604, 1.604, 1.604, 1.604, 1.604, 1.604, 1.604, 1.607, 1.607, 1.608, 1.609, 1.61, 1.615, 1.619, 1.62, 1.62, 1.624, 1.624, 1.625, 1.624, 1.624, 1.62, 1.62, 1.616, 1.615, 1.615, 1.614, 1.614, 1.614, 1.614, 1.614, 1.614, 1.614, 1.614, 1.614, 1.611, 1.61, 1.61, 1.609, 1.609, 1.609, 1.609, 1.609, 1.609, 1.61, 1.609, 1.609, 1.609, 1.608, 1.607, 1.607, 1.603, 1.603, 1.602, 1.598, 1.598, 1.597, 1.596, 1.596, 1.597, 1.597, 1.597, 1.598, 1.603, 1.603, 1.607, 1.611, 1.611, 1.614, 1.614, 1.614, 1.614, 1.611, 1.611, 1.611, 1.611, 1.611, 1.611, 1.611, 1.61, 1.609, 1.609, 1.608, 1.607, 1.607, 1.607, 1.604, 1.603, 1.603, 1.602, 1.602, 1.599, 1.598, 1.598, 1.597, 1.596, 1.596, 1.596, 1.596, 1.596, 1.596, 1.596, 1.596, 1.596, 1.595, 1.595, 1.595, 1.592, 1.592, 1.591, 1.591, 1.587, 1.587, 1.587, 1.587, 1.587, 1.587, 1.587, 1.587, 1.587, 1.587, 1.587, 1.59, 1.591, 1.591, 1.592, 1.592, 1.592, 1.592, 1.591, 1.591, 1.591, 1.591, 1.591, 1.587, 1.587, 1.587, 1.586, 1.586, 1.586, 1.585, 1.585, 1.585, 1.584, 1.584, 1.584, 1.585, 1.586, 1.587, 1.587, 1.591, 1.591, 1.596, 1.596, 1.597, 1.597, 1.597, 1.597, 1.597, 1.597, 1.598, 1.598, 1.598, 1.598, 1.598, 1.598, 1.597, 1.597, 1.596, 1.592, 1.591, 1.586, 1.585, 1.585, 1.584, 1.579, 1.579, 1.578, 1.577, 1.576, 1.576, 1.576, 1.576, 1.577, 1.578, 1.579, 1.58, 1.584, 1.585, 1.586, 1.587, 1.587, 1.587, 1.587, 1.586, 1.586, 1.585, 1.585, 1.585, 1.585, 1.585, 1.585, 1.585, 1.584, 1.583, 1.583, 1.58, 1.58, 1.58, 1.58, 1.58, 1.58, 1.58, 1.583, 1.583, 1.583, 1.583, 1.583, 1.583, 1.583, 1.583, 1.58, 1.58, 1.579, 1.578, 1.577, 1.576, 1.576, 1.576, 1.576, 1.576, 1.573, 1.573, 1.573, 1.573, 1.573, 1.573, 1.573, 1.573, 1.573, 1.573, 1.573, 1.573, 1.573, 1.572, 1.572, 1.571, 1.57, 1.569, 1.568, 1.563, 1.562, 1.562, 1.561, 1.56, 1.56, 1.56, 1.56, 1.561, 1.561, 1.562, 1.562, 1.563, 1.567, 1.568, 1.569, 1.571, 1.572, 1.572, 1.573, 1.573, 1.572, 1.571, 1.571, 1.57, 1.569, 1.569, 1.568, 1.567, 1.567, 1.563, 1.562, 1.562, 1.561, 1.56, 1.557, 1.557, 1.557, 1.557, 1.556, 1.555, 1.554, 1.553, 1.552, 1.547, 1.546, 1.544, 1.543, 1.542, 1.538, 1.538, 1.537, 1.537, 1.537, 1.538, 1.539, 1.539, 1.542, 1.542, 1.539, 1.538, 1.537, 1.536, 1.535, 1.535, 1.535, 1.535, 1.535, 1.536, 1.537, 1.538, 1.539, 1.542, 1.542, 1.542, 1.543, 1.543, 1.543, 1.543, 1.542, 1.542, 1.538, 1.537, 1.535, 1.534, 1.533, 1.532, 1.528, 1.528, 1.528, 1.528, 1.528, 1.532, 1.532, 1.533, 1.533, 1.534, 1.535, 1.535, 1.535, 1.535, 1.535, 1.534, 1.534, 1.533, 1.533, 1.533, 1.532, 1.532, 1.528, 1.528, 1.528, 1.528, 1.528, 1.528, 1.528, 1.531, 1.531, 1.532, 1.532, 1.528, 1.527, 1.526, 1.525, 1.524, 1.523, 1.522, 1.521, 1.52, 1.52, 1.521, 1.521, 1.522, 1.522, 1.522, 1.522, 1.522, 1.522, 1.522, 1.521, 1.52, 1.52, 1.52, 1.521, 1.521, 1.521, 1.522, 1.523, 1.523, 1.523, 1.523, 1.522, 1.522, 1.521, 1.521, 1.52, 1.52, 1.519, 1.518, 1.517, 1.516, 1.516, 1.516, 1.516, 1.516, 1.516, 1.517, 1.518, 1.519, 1.52
