0, 0, 0, 0, 0, 0, 0, 0, 0, 0, 0, 0, 0, 0, 0, 0, 0, 0, 0, 0, 0, 0, 0, 0, 0, 0, 0, 0, 0, 0, 0, 0, 0, 0, 0, 0, 0, 0, 0, 0, 0, 0, 0, 0, 0, 0, 0, 0, 0, 0, 0, 0, 0, 0, 0, 0, 0, 0, 0, 0, 0, 0, 0, 0, 0, 0, 0, 0, 0, 0, 0, 0, 0, 0, 0, 0, 0, 0, 0, 0, 0, 0, 0, 0, 0, 0, 0, 0, 0, 0, 0, 0, 0, 0, 0, 0, 0, 0, 0, 0, 0, 0, 0, 0, 0, 0, 0, 0, 0, 0, 0, 0, 0, 0, 0, 0, 0, 0, 0, 0, 0, 0, 0, 0, 0, 0, 0, 0, 0, 0, 0, 0, 0, 0, 0, 0, 0, 0, 0, 0, 0, 0, 0, 0, 0, 0, 0, 0, 0, 0, 0, 0, 0, 0, 0, 0, 0, 0, 0, 0, 0, 0, 0, 0, 0, 0, 0, 0, 0, 0, 0, 0, 0, 0, 0, 0, 0, 0, 0, 0, 0, 0, 0, 0, 0, 0, 0, 0, 0, 0, 0, 0, 0, 0, 0, 0, 0, 0, 0, 0, 0, 0, 0, 0, 0, 0, 0, 0, 0, 0, 0, 0, 0, 0, 0, 0, 0, 0, 0, 0, 0, 0, 0, 0, 0, 0, 0, 0, 0, 0, 0, 0, 0, 0, 0, 0, 0, 0, 0, 0, 0, 0, 0, 0, 0, 0, 0, 0, 0, 0, 0, 0, 0, 0, 0, 0, 0, 0, 0, 0, 0, 0, 0, 0, 0, 0, 0, 0, 0, 0, 0, 0, 0, 0, 0, 0, 0, 0, 0, 0, 0, 0, 0, 0, 0, 0, 0, 0, 0, 0, 0, 0, 0, 0, 0, 0, 0, 0, 0, 0, 0, 0, 0, 0, 0, 0, 0, 0, 0, 0, 0, 0, 0, 0, 0, 0, 0, 0, 0, 0, 0, 0, 0, 0, 0, 0, 0, 0, 0, 0, 0, 0, 0, 0, 0, 0, 0, 0, 0, 0, 0, 0, 0, 0, 0, 0, 0, 0, 0, 0, 0, 0, 0, 0, 0, 0, 0, 0, 0, 0, 0, 0, 0, 0, 0, 0, 0, 0, 0, 0, 0, 0, 0, 0, 0, 0, 0, 0, 0, 0, 0, 0, 0, 0, 0, 0, 0, 0, 0, 0, 0, 0, 0, 0, 0, 0, 0, 0, 0, 0, 0, 0, 0, 0, 0, 0, 0, 0, 0, 0, 0, 0, 0, 0, 0, 0, 0, 0, 0, 4.385, 4.385, 4.283, 4.285, 4.294, 4.3, 4.308, 4.309, 4.303, 4.28, 4.281, 4.263, 4.246, 4.229, 4.229, 4.208, 4.203, 4.199, 4.2, 4.201, 4.177, 4.176, 4.177, 4.176, 4.172, 4.147
0, 0, 0, 0, 0, 0, 0, 0, 0, 0, 0, 0, 0, 0, 0, 0, 0, 0, 0, 0, 0, 0, 0, 0, 0, 0, 0, 0, 0, 0, 0, 0, 0, 0, 0, 0, 0, 0, 0, 0, 0, 0, 0, 0, 0, 0, 0, 0, 0, 0, 0, 0, 0, 0, 0, 0, 0, 0, 0, 0, 0, 0, 0, 0, 0, 0, 0, 0, 0, 0, 0, 0, 0, 0, 0, 0, 0, 0, 0, 0, 0, 0, 0, 0, 0, 0, 0, 0, 0, 0, 0, 0, 0, 0, 0, 0, 0, 0, 0, 0, 0, 0, 0, 0, 0, 0, 0, 0, 0, 0, 0, 0, 0, 0, 0, 0, 0, 0, 0, 0, 0, 0, 0, 0, 0, 0, 0, 0, 0, 0, 0, 0, 0, 0, 0, 0, 0, 0, 0, 0, 0, 0, 0, 0, 0, 0, 0, 0, 0, 0, 0, 0, 0, 0, 0, 0, 0, 0, 0, 0, 0, 0, 0, 0, 0, 0, 0, 0, 0, 0, 0, 0, 0, 0, 0, 0, 0, 0, 0, 0, 0, 0, 0, 0, 0, 0, 0, 0, 0, 0, 0, 0, 0, 0, 0, 0, 0, 0, 0, 0, 0, 0, 0, 0, 0, 0, 0, 0, 0, 0, 0, 0, 0, 0, 0, 0, 0, 0, 0, 0, 0, 0, 0, 0, 0, 0, 0, 0, 0, 0, 0, 0, 0, 0, 0, 0, 0, 0, 0, 0, 0, 0, 0, 0, 0, 0, 0, 0, 0, 0, 0, 0, 0, 0, 0, 0, 0, 0, 0, 0, 0, 0, 0, 0, 0, 0, 0, 0, 0, 0, 0, 0, 0, 0, 0, 0, 0, 0, 0, 0, 0, 0, 0, 0, 0, 0, 0, 0, 0, 0, 0, 0, 0, 0, 0, 0, 0, 0, 0, 0, 0, 0, 0, 0, 0, 0, 0, 0, 0, 0, 0, 0, 0, 0, 0, 0, 0, 0, 0, 0, 0, 0, 0, 0, 0, 0, 0, 0, 0, 0, 0, 0, 0, 0, 0, 0, 0, 0, 0, 0, 0, 0, 0, 0, 0, 0, 0, 0, 0, 0, 0, 0, 0, 0, 0, 0, 0, 0, 0, 0, 0, 0, 0, 0, 0, 0, 0, 0, 0, 0, 0, 0, 0, 0, 0, 0, 0, 0, 0, 0, 0, 0, 0, 0, 0, 0, 0, 0, 0, 0, 0, 0, 0, 0, 0, 0, 0, 0, 0, 0, 0, 0, 0, 0, 0, 0, 0, 0, 0, 0, 0, 0, 0, 0, 0, 0, 0, 0, 0, 4.385, 4.385, 4.385, 4.385, 4.385, 4.385, 4.385, 4.385, 4.385, 4.385, 4.385, 4.263, 4.229, 4.229, 4.229, 4.208, 4.201, 4.198, 4.197, 4.177, 4.174, 4.17, 4.147, 4.147, 4.131, 4.131
0, 0, 0, 0, 0, 0, 0, 0, 0, 0, 0, 0, 0, 0, 0, 0, 0, 0, 0, 0, 0, 0, 0, 0, 0, 0, 0, 0, 0, 0, 0, 0, 0, 0, 0, 0, 0, 0, 0, 0, 0, 0, 0, 0, 0, 0, 0, 0, 0, 0, 0, 0, 0, 0, 0, 0, 0, 0, 0, 0, 0, 0, 0, 0, 0, 0, 0, 0, 0, 0, 0, 0, 0, 0, 0, 0, 0, 0, 0, 0, 0, 0, 0, 0, 0, 0, 0, 0, 0, 0, 0, 0, 0, 0, 0, 0, 0, 0, 0, 0, 0, 0, 0, 0, 0, 0, 0, 0, 0, 0, 0, 0, 0, 0, 0, 0, 0, 0, 0, 0, 0, 0, 0, 0, 0, 0, 0, 0, 0, 0, 0, 0, 0, 0, 0, 0, 0, 0, 0, 0, 0, 0, 0, 0, 0, 0, 0, 0, 0, 0, 0, 0, 0, 0, 0, 0, 0, 0, 0, 0, 0, 0, 0, 0, 0, 0, 0, 0, 0, 0, 0, 0, 0, 0, 0, 0, 0, 0, 0, 0, 0, 0, 0, 0, 0, 0, 0, 0, 0, 0, 0, 0, 0, 0, 0, 0, 0, 0, 0, 0, 0, 0, 0, 0, 0, 0, 0, 0, 0, 0, 0, 0, 0, 0, 0, 0, 0, 0, 0, 0, 0, 0, 0, 0, 0, 0, 0, 0, 0, 0, 0, 0, 0, 0, 0, 0, 0, 0, 0, 0, 0, 0, 0, 0, 0, 0, 0, 0, 0, 0, 0, 0, 0, 0, 0, 0, 0, 0, 0, 0, 0, 0, 0, 0, 0, 0, 0, 0, 0, 0, 0, 0, 0, 0, 0, 0, 0, 0, 0, 0, 0, 0, 0, 0, 0, 0, 0, 0, 0, 0, 0, 0, 0, 0, 0, 0, 0, 0, 0, 0, 0, 0, 0, 0, 0, 0, 0, 0, 0, 0, 0, 0, 0, 0, 0, 0, 0, 0, 0, 0, 0, 0, 0, 0, 0, 0, 0, 0, 0, 0, 0, 0, 0, 0, 0, 0, 0, 0, 0, 0, 0, 0, 0, 0, 0, 0, 0, 0, 0, 0, 0, 0, 0, 0, 0, 0, 0, 0, 0, 0, 0, 0, 0, 0, 0, 0, 0, 0, 0, 0, 0, 0, 0, 0, 0, 0, 0, 0, 0, 0, 0, 0, 0, 0, 0, 0, 0, 0, 0, 0, 0, 0, 0, 0, 0, 0, 0, 0, 0, 0, 0, 0, 0, 0, 0, 0, 0, 0, 0, 0, 0, 0, 0, 0, 0, 0, 0, 0, 0, 4.385, 4.385, 4.385, 4.385, 4.385, 4.385, 4.385, 4.385, 4.385, 4.385, 4.385, 4.385, 4.229, 4.229, 4.229, 4.229, 4.229, 4.196, 4.196, 4.175, 4.169, 4.166, 4.147, 4.131, 4.115, 4.115
0, 0, 0, 0, 0, 0, 0, 0, 0, 0, 0, 0, 0, 0, 0, 0, 0, 0, 0, 0, 0, 0, 0, 0, 0, 0, 0, 0, 0, 0, 0, 0, 0, 0, 0, 0, 0, 0, 0, 0, 0, 0, 0, 0, 0, 0, 0, 0, 0, 0, 0, 0, 0, 0, 0, 0, 0, 0, 0, 0, 0, 0, 0, 0, 0, 0, 0, 0, 0, 0, 0, 0, 0, 0, 0, 0, 0, 0, 0, 0, 0, 0, 0, 0, 0, 0, 0, 0, 0, 0, 0, 0, 0, 0, 0, 0, 0, 0, 0, 0, 0, 0, 0, 0, 0, 0, 0, 0, 0, 0, 0, 0, 0, 0, 0, 0, 0, 0, 0, 0, 0, 0, 0, 0, 0, 0, 0, 0, 0, 0, 0, 0, 0, 0, 0, 0, 0, 0, 0, 0, 0, 0, 0, 0, 0, 0, 0, 0, 0, 0, 0, 0, 0, 0, 0, 0, 0, 0, 0, 0, 0, 0, 0, 0, 0, 0, 0, 0, 0, 0, 0, 0, 0, 0, 0, 0, 0, 0, 0, 0, 0, 0, 0, 0, 0, 0, 0, 0, 0, 0, 0, 0, 0, 0, 0, 0, 0, 0, 0, 0, 0, 0, 0, 0, 0, 0, 0, 0, 0, 0, 0, 0, 0, 0, 0, 0, 0, 0, 0, 0, 0, 0, 0, 0, 0, 0, 0, 0, 0, 0, 0, 0, 0, 0, 0, 0, 0, 0, 0, 0, 0, 0, 0, 0, 0, 0, 0, 0, 0, 0, 0, 0, 0, 0, 0, 0, 0, 0, 0, 0, 0, 0, 0, 0, 0, 0, 0, 0, 0, 0, 0, 0, 0, 0, 0, 0, 0, 0, 0, 0, 0, 0, 0, 0, 0, 0, 0, 0, 0, 0, 0, 0, 0, 0, 0, 0, 0, 0, 0, 0, 0, 0, 0, 0, 0, 0, 0, 0, 0, 0, 0, 0, 0, 0, 0, 0, 0, 0, 0, 0, 0, 0, 0, 0, 0, 0, 0, 0, 0, 0, 0, 0, 0, 0, 0, 0, 0, 0, 0, 0, 0, 0, 0, 0, 0, 0, 0, 0, 0, 0, 0, 0, 0, 0, 0, 0, 0, 0, 0, 0, 0, 0, 0, 0, 0, 0, 0, 0, 0, 0, 0, 0, 0, 0, 0, 0, 0, 0, 0, 0, 0, 0, 0, 0, 0, 0, 0, 0, 0, 0, 0, 0, 0, 0, 0, 0, 0, 0, 0, 0, 0, 0, 0, 0, 0, 0, 0, 0, 0, 0, 0, 0, 0, 0, 0, 0, 0, 0, 0, 4.385, 4.385, 4.385, 4.385, 4.385, 4.385, 4.385, 4.385, 4.385, 4.385, 4.385, 4.385, 4.385, 4.385, 4.385, 4.385, 4.385, 4.385, 4.385, 4.385, 4.165, 4.164, 4.147, 4.131, 4.115, 4.115
0, 0, 0, 0, 0, 0, 0, 0, 0, 0, 0, 0, 0, 0, 0, 0, 0, 0, 0, 0, 0, 0, 0, 0, 0, 0, 0, 0, 0, 0, 0, 0, 0, 0, 0, 0, 0, 0, 0, 0, 0, 0, 0, 0, 0, 0, 0, 0, 0, 0, 0, 0, 0, 0, 0, 0, 0, 0, 0, 0, 0, 0, 0, 0, 0, 0, 0, 0, 0, 0, 0, 0, 0, 0, 0, 0, 0, 0, 0, 0, 0, 0, 0, 0, 0, 0, 0, 0, 0, 0, 0, 0, 0, 0, 0, 0, 0, 0, 0, 0, 0, 0, 0, 0, 0, 0, 0, 0, 0, 0, 0, 0, 0, 0, 0, 0, 0, 0, 0, 0, 0, 0, 0, 0, 0, 0, 0, 0, 0, 0, 0, 0, 0, 0, 0, 0, 0, 0, 0, 0, 0, 0, 0, 0, 0, 0, 0, 0, 0, 0, 0, 0, 0, 0, 0, 0, 0, 0, 0, 0, 0, 0, 0, 0, 0, 0, 0, 0, 0, 0, 0, 0, 0, 0, 0, 0, 0, 0, 0, 0, 0, 0, 0, 0, 0, 0, 0, 0, 0, 0, 0, 0, 0, 0, 0, 0, 0, 0, 0, 0, 0, 0, 0, 0, 0, 0, 0, 0, 0, 0, 0, 0, 0, 0, 0, 0, 0, 0, 0, 0, 0, 0, 0, 0, 0, 0, 0, 0, 0, 0, 0, 0, 0, 0, 0, 0, 0, 0, 0, 0, 0, 0, 0, 0, 0, 0, 0, 0, 0, 0, 0, 0, 0, 0, 0, 0, 0, 0, 0, 0, 0, 0, 0, 0, 0, 0, 0, 0, 0, 0, 0, 0, 0, 0, 0, 0, 0, 0, 0, 0, 0, 0, 0, 0, 0, 0, 0, 0, 0, 0, 0, 0, 0, 0, 0, 0, 0, 0, 0, 0, 0, 0, 0, 0, 0, 0, 0, 0, 0, 0, 0, 0, 0, 0, 0, 0, 0, 0, 0, 0, 0, 0, 0, 0, 0, 0, 0, 0, 0, 0, 0, 0, 0, 0, 0, 0, 0, 0, 0, 0, 0, 0, 0, 0, 0, 0, 0, 0, 0, 0, 0, 0, 0, 0, 0, 0, 0, 0, 0, 0, 0, 0, 0, 0, 0, 0, 0, 0, 0, 0, 0, 0, 0, 0, 0, 0, 0, 0, 0, 0, 0, 0, 0, 0, 0, 0, 0, 0, 0, 0, 0, 0, 0, 0, 0, 0, 0, 0, 0, 0, 0, 0, 0, 0, 0, 0, 0, 0, 0, 0, 0, 0, 0, 0, 0, 0, 0, 0, 0, 4.385, 4.385, 4.385, 4.385, 4.385, 4.385, 4.385, 4.385, 4.385, 4.385, 4.385, 4.385, 4.385, 4.385, 4.385, 4.385, 4.385, 4.385, 4.385, 4.385, 4.385, 4.385, 4.385, 4.385, 4.385, 4.115
0, 0, 0, 0, 0, 0, 0, 0, 0, 0, 0, 0, 0, 0, 0, 0, 0, 0, 0, 0, 0, 0, 0, 0, 0, 0, 0, 0, 0, 0, 0, 0, 0, 0, 0, 0, 0, 0, 0, 0, 0, 0, 0, 0, 0, 0, 0, 0, 0, 0, 0, 0, 0, 0, 0, 0, 0, 0, 0, 0, 0, 0, 0, 0, 0, 0, 0, 0, 0, 0, 0, 0, 0, 0, 0, 0, 0, 0, 0, 0, 0, 0, 0, 0, 0, 0, 0, 0, 0, 0, 0, 0, 0, 0, 0, 0, 0, 0, 0, 0, 0, 0, 0, 0, 0, 0, 0, 0, 0, 0, 0, 0, 0, 0, 0, 0, 0, 0, 0, 0, 0, 0, 0, 0, 0, 0, 0, 0, 0, 0, 0, 0, 0, 0, 0, 0, 0, 0, 0, 0, 0, 0, 0, 0, 0, 0, 0, 0, 0, 0, 0, 0, 0, 0, 0, 0, 0, 0, 0, 0, 0, 0, 0, 0, 0, 0, 0, 0, 0, 0, 0, 0, 0, 0, 0, 0, 0, 0, 0, 0, 0, 0, 0, 0, 0, 0, 0, 0, 0, 0, 0, 0, 0, 0, 0, 0, 0, 0, 0, 0, 0, 0, 0, 0, 0, 0, 0, 0, 0, 0, 0, 0, 0, 0, 0, 0, 0, 0, 0, 0, 0, 0, 0, 0, 0, 0, 0, 0, 0, 0, 0, 0, 0, 0, 0, 0, 0, 0, 0, 0, 0, 0, 0, 0, 0, 0, 0, 0, 0, 0, 0, 0, 0, 0, 0, 0, 0, 0, 0, 0, 0, 0, 0, 0, 0, 0, 0, 0, 0, 0, 0, 0, 0, 0, 0, 0, 0, 0, 0, 0, 0, 0, 0, 0, 0, 0, 0, 0, 0, 0, 0, 0, 0, 0, 0, 0, 0, 0, 0, 0, 0, 0, 0, 0, 0, 0, 0, 0, 0, 0, 0, 0, 0, 0, 0, 0, 0, 0, 0, 0, 0, 0, 0, 0, 0, 0, 0, 0, 0, 0, 0, 0, 0, 0, 0, 0, 0, 0, 0, 0, 0, 0, 0, 0, 0, 0, 0, 0, 0, 0, 0, 0, 0, 0, 0, 0, 0, 0, 0, 0, 0, 0, 0, 0, 0, 0, 0, 0, 0, 0, 0, 0, 0, 0, 0, 0, 0, 0, 0, 0, 0, 0, 0, 0, 0, 0, 0, 0, 0, 0, 0, 0, 0, 0, 0, 0, 0, 0, 0, 0, 0, 0, 0, 0, 0, 0, 0, 0, 0, 0, 0, 0, 0, 0, 0, 0, 0, 0, 0, 4.385, 4.385, 4.385, 4.385, 4.385, 4.385, 4.385, 4.385, 4.385, 4.385, 4.385, 4.385, 4.385, 4.385, 4.385, 4.385, 4.385, 4.385, 4.385, 4.385, 4.385, 4.385, 4.385, 4.385, 4.385, 4.385
0, 0, 0, 0, 0, 0, 0, 0, 0, 0, 0, 0, 0, 0, 0, 0, 0, 0, 0, 0, 0, 0, 0, 0, 0, 0, 0, 0, 0, 0, 0, 0, 0, 0, 0, 0, 0, 0, 0, 0, 0, 0, 0, 0, 0, 0, 0, 0, 0, 0, 0, 0, 0, 0, 0, 0, 0, 0, 0, 0, 0, 0, 0, 0, 0, 0, 0, 0, 0, 0, 0, 0, 0, 0, 0, 0, 0, 0, 0, 0, 0, 0, 0, 0, 0, 0, 0, 0, 0, 0, 0, 0, 0, 0, 0, 0, 0, 0, 0, 0, 0, 0, 0, 0, 0, 0, 0, 0, 0, 0, 0, 0, 0, 0, 0, 0, 0, 0, 0, 0, 0, 0, 0, 0, 0, 0, 0, 0, 0, 0, 0, 0, 0, 0, 0, 0, 0, 0, 0, 0, 0, 0, 0, 0, 0, 0, 0, 0, 0, 0, 0, 0, 0, 0, 0, 0, 0, 0, 0, 0, 0, 0, 0, 0, 0, 0, 0, 0, 0, 0, 0, 0, 0, 0, 0, 0, 0, 0, 0, 0, 0, 0, 0, 0, 0, 0, 0, 0, 0, 0, 0, 0, 0, 0, 0, 0, 0, 0, 0, 0, 0, 0, 0, 0, 0, 0, 0, 0, 0, 0, 0, 0, 0, 0, 0, 0, 0, 0, 0, 0, 0, 0, 0, 0, 0, 0, 0, 0, 0, 0, 0, 0, 0, 0, 0, 0, 0, 0, 0, 0, 0, 0, 0, 0, 0, 0, 0, 0, 0, 0, 0, 0, 0, 0, 0, 0, 0, 0, 0, 0, 0, 0, 0, 0, 0, 0, 0, 0, 0, 0, 0, 0, 0, 0, 0, 0, 0, 0, 0, 0, 0, 0, 0, 0, 0, 0, 0, 0, 0, 0, 0, 0, 0, 0, 0, 0, 0, 0, 0, 0, 0, 0, 0, 0, 0, 0, 0, 0, 0, 0, 0, 0, 0, 0, 0, 0, 0, 0, 0, 0, 0, 0, 0, 0, 0, 0, 0, 0, 0, 0, 0, 0, 0, 0, 0, 0, 0, 0, 0, 0, 0, 0, 0, 0, 0, 0, 0, 0, 0, 0, 0, 0, 0, 0, 0, 0, 0, 0, 0, 0, 0, 0, 0, 0, 0, 0, 0, 0, 0, 0, 0, 0, 0, 0, 0, 0, 0, 0, 0, 0, 0, 0, 0, 0, 0, 0, 0, 0, 0, 0, 0, 0, 0, 0, 0, 0, 0, 0, 0, 0, 0, 0, 0, 0, 0, 0, 0, 0, 0, 0, 0, 0, 0, 0, 0, 0, 0, 0, 0, 4.385, 4.385, 4.385, 4.385, 4.385, 4.385, 4.385, 4.385, 4.385, 4.385, 4.385, 4.385, 4.385, 4.385, 4.385, 4.385, 4.385, 4.385, 4.385, 4.385, 4.385, 4.385, 4.385, 4.385, 4.385, 4.385
0, 0, 0, 0, 0, 0, 0, 0, 0, 0, 0, 0, 0, 0, 0, 0, 0, 0, 0, 0, 0, 0, 0, 0, 0, 0, 0, 0, 0, 0, 0, 0, 0, 0, 0, 0, 0, 0, 0, 0, 0, 0, 0, 0, 0, 0, 0, 0, 0, 0, 0, 0, 0, 0, 0, 0, 0, 0, 0, 0, 0, 0, 0, 0, 0, 0, 0, 0, 0, 0, 0, 0, 0, 0, 0, 0, 0, 0, 0, 0, 0, 0, 0, 0, 0, 0, 0, 0, 0, 0, 0, 0, 0, 0, 0, 0, 0, 0, 0, 0, 0, 0, 0, 0, 0, 0, 0, 0, 0, 0, 0, 0, 0, 0, 0, 0, 0, 0, 0, 0, 0, 0, 0, 0, 0, 0, 0, 0, 0, 0, 0, 0, 0, 0, 0, 0, 0, 0, 0, 0, 0, 0, 0, 0, 0, 0, 0, 0, 0, 0, 0, 0, 0, 0, 0, 0, 0, 0, 0, 0, 0, 0, 0, 0, 0, 0, 0, 0, 0, 0, 0, 0, 0, 0, 0, 0, 0, 0, 0, 0, 0, 0, 0, 0, 0, 0, 0, 0, 0, 0, 0, 0, 0, 0, 0, 0, 0, 0, 0, 0, 0, 0, 0, 0, 0, 0, 0, 0, 0, 0, 0, 0, 0, 0, 0, 0, 0, 0, 0, 0, 0, 0, 0, 0, 0, 0, 0, 0, 0, 0, 0, 0, 0, 0, 0, 0, 0, 0, 0, 0, 0, 0, 0, 0, 0, 0, 0, 0, 0, 0, 0, 0, 0, 0, 0, 0, 0, 0, 0, 0, 0, 0, 0, 0, 0, 0, 0, 0, 0, 0, 0, 0, 0, 0, 0, 0, 0, 0, 0, 0, 0, 0, 0, 0, 0, 0, 0, 0, 0, 0, 0, 0, 0, 0, 0, 0, 0, 0, 0, 0, 0, 0, 0, 0, 0, 0, 0, 0, 0, 0, 0, 0, 0, 0, 0, 0, 0, 0, 0, 0, 0, 0, 0, 0, 0, 0, 0, 0, 0, 0, 0, 0, 0, 0, 0, 0, 0, 0, 0, 0, 0, 0, 0, 0, 0, 0, 0, 0, 0, 0, 0, 0, 0, 0, 0, 0, 0, 0, 0, 0, 0, 0, 0, 0, 0, 0, 0, 0, 0, 0, 0, 0, 0, 0, 0, 0, 0, 0, 0, 0, 0, 0, 0, 0, 0, 0, 0, 0, 0, 0, 0, 0, 0, 0, 0, 0, 0, 0, 0, 0, 0, 0, 0, 0, 0, 0, 0, 0, 0, 0, 0, 0, 0, 0, 0, 0, 0, 0, 0, 4.385, 4.385, 4.385, 4.385, 4.385, 4.385, 4.385, 4.385, 4.385, 4.385, 4.385, 4.385, 4.385, 4.385, 4.385, 4.385, 4.385, 4.385, 4.385, 4.385, 4.385, 4.385, 4.385, 4.385, 4.385, 4.385
0, 0, 0, 0, 0, 0, 0, 0, 0, 0, 0, 0, 0, 0, 0, 0, 0, 0, 0, 0, 0, 0, 0, 0, 0, 0, 0, 0, 0, 0, 0, 0, 0, 0, 0, 0, 0, 0, 0, 0, 0, 0, 0, 0, 0, 0, 0, 0, 0, 0, 0, 0, 0, 0, 0, 0, 0, 0, 0, 0, 0, 0, 0, 0, 0, 0, 0, 0, 0, 0, 0, 0, 0, 0, 0, 0, 0, 0, 0, 0, 0, 0, 0, 0, 0, 0, 0, 0, 0, 0, 0, 0, 0, 0, 0, 0, 0, 0, 0, 0, 0, 0, 0, 0, 0, 0, 0, 0, 0, 0, 0, 0, 0, 0, 0, 0, 0, 0, 0, 0, 0, 0, 0, 0, 0, 0, 0, 0, 0, 0, 0, 0, 0, 0, 0, 0, 0, 0, 0, 0, 0, 0, 0, 0, 0, 0, 0, 0, 0, 0, 0, 0, 0, 0, 0, 0, 0, 0, 0, 0, 0, 0, 0, 0, 0, 0, 0, 0, 0, 0, 0, 0, 0, 0, 0, 0, 0, 0, 0, 0, 0, 0, 0, 0, 0, 0, 0, 0, 0, 0, 0, 0, 0, 0, 0, 0, 0, 0, 0, 0, 0, 0, 0, 0, 0, 0, 0, 0, 0, 0, 0, 0, 0, 0, 0, 0, 0, 0, 0, 0, 0, 0, 0, 0, 0, 0, 0, 0, 0, 0, 0, 0, 0, 0, 0, 0, 0, 0, 0, 0, 0, 0, 0, 0, 0, 0, 0, 0, 0, 0, 0, 0, 0, 0, 0, 0, 0, 0, 0, 0, 0, 0, 0, 0, 0, 0, 0, 0, 0, 0, 0, 0, 0, 0, 0, 0, 0, 0, 0, 0, 0, 0, 0, 0, 0, 0, 0, 0, 0, 0, 0, 0, 0, 0, 0, 0, 0, 0, 0, 0, 0, 0, 0, 0, 0, 0, 0, 0, 0, 0, 0, 0, 0, 0, 0, 0, 0, 0, 0, 0, 0, 0, 0, 0, 0, 0, 0, 0, 0, 0, 0, 0, 0, 0, 0, 0, 0, 0, 0, 0, 0, 0, 0, 0, 0, 0, 0, 0, 0, 0, 0, 0, 0, 0, 0, 0, 0, 0, 0, 0, 0, 0, 0, 0, 0, 0, 0, 0, 0, 0, 0, 0, 0, 0, 0, 0, 0, 0, 0, 0, 0, 0, 0, 0, 0, 0, 0, 0, 0, 0, 0, 0, 0, 0, 0, 0, 0, 0, 0, 0, 0, 0, 0, 0, 0, 0, 0, 0, 0, 0, 0, 0, 0, 0, 0, 0, 0, 0, 0, 4.385, 4.385, 4.385, 4.385, 4.385, 4.385, 4.385, 4.385, 4.385, 4.385, 4.385, 4.385, 4.385, 4.385, 4.385, 4.385, 4.385, 4.385, 4.385, 4.385, 4.385, 4.385, 4.385, 4.385, 4.385, 4.385
0, 0, 0, 0, 0, 0, 0, 0, 0, 0, 0, 0, 0, 0, 0, 0, 0, 0, 0, 0, 0, 0, 0, 0, 0, 0, 0, 0, 0, 0, 0, 0, 0, 0, 0, 0, 0, 0, 0, 0, 0, 0, 0, 0, 0, 0, 0, 0, 0, 0, 0, 0, 0, 0, 0, 0, 0, 0, 0, 0, 0, 0, 0, 0, 0, 0, 0, 0, 0, 0, 0, 0, 0, 0, 0, 0, 0, 0, 0, 0, 0, 0, 0, 0, 0, 0, 0, 0, 0, 0, 0, 0, 0, 0, 0, 0, 0, 0, 0, 0, 0, 0, 0, 0, 0, 0, 0, 0, 0, 0, 0, 0, 0, 0, 0, 0, 0, 0, 0, 0, 0, 0, 0, 0, 0, 0, 0, 0, 0, 0, 0, 0, 0, 0, 0, 0, 0, 0, 0, 0, 0, 0, 0, 0, 0, 0, 0, 0, 0, 0, 0, 0, 0, 0, 0, 0, 0, 0, 0, 0, 0, 0, 0, 0, 0, 0, 0, 0, 0, 0, 0, 0, 0, 0, 0, 0, 0, 0, 0, 0, 0, 0, 0, 0, 0, 0, 0, 0, 0, 0, 0, 0, 0, 0, 0, 0, 0, 0, 0, 0, 0, 0, 0, 0, 0, 0, 0, 0, 0, 0, 0, 0, 0, 0, 0, 0, 0, 0, 0, 0, 0, 0, 0, 0, 0, 0, 0, 0, 0, 0, 0, 0, 0, 0, 0, 0, 0, 0, 0, 0, 0, 0, 0, 0, 0, 0, 0, 0, 0, 0, 0, 0, 0, 0, 0, 0, 0, 0, 0, 0, 0, 0, 0, 0, 0, 0, 0, 0, 0, 0, 0, 0, 0, 0, 0, 0, 0, 0, 0, 0, 0, 0, 0, 0, 0, 0, 0, 0, 0, 0, 0, 0, 0, 0, 0, 0, 0, 0, 0, 0, 0, 0, 0, 0, 0, 0, 0, 0, 0, 0, 0, 0, 0, 0, 0, 0, 0, 0, 0, 0, 0, 0, 0, 0, 0, 0, 0, 0, 0, 0, 0, 0, 0, 0, 0, 0, 0, 0, 0, 0, 0, 0, 0, 0, 0, 0, 0, 0, 0, 0, 0, 0, 0, 0, 0, 0, 0, 0, 0, 0, 0, 0, 0, 0, 0, 0, 0, 0, 0, 0, 0, 0, 0, 0, 0, 0, 0, 0, 0, 0, 0, 0, 0, 0, 0, 0, 0, 0, 0, 0, 0, 0, 0, 0, 0, 0, 0, 0, 0, 0, 0, 0, 0, 0, 0, 0, 0, 0, 0, 0, 0, 0, 0, 0, 0, 0, 0, 0, 0, 4.385, 4.385, 4.385, 4.385, 4.385, 4.385, 4.385, 4.385, 4.385, 4.385, 4.385, 4.385, 4.385, 4.385, 4.385, 4.385, 4.385, 4.385, 4.385, 4.385, 4.385, 4.385, 4.385, 4.385, 4.385, 4.385
0, 0, 0, 0, 0, 0, 0, 0, 0, 0, 0, 0, 0, 0, 0, 0, 0, 0, 0, 1.526, 1.526, 1.526, 1.526, 1.526, 1.523, 1.523, 1.522, 1.522, 1.522, 1.522, 1.522, 1.522, 1.522, 1.522, 1.522, 1.522, 1.522, 1.522, 1.522, 1.522, 1.522, 1.522, 1.522, 1.522, 1.522, 1.522, 1.522, 1.522, 1.522, 1.522, 1.522, 1.522, 1.522, 1.522, 1.522, 1.522, 1.522, 1.522, 1.522, 1.524, 1.524, 1.524, 1.523, 1.523, 1.524, 1.524, 1.524, 1.524, 1.524, 1.524, 1.524, 1.524, 1.524, 1.524, 1.524, 1.524, 1.524, 1.524, 1.524, 1.524, 1.523, 1.524, 1.524, 1.523, 1.523, 1.523, 1.523, 1.519, 1.518, 1.518, 1.518, 1.518, 1.518, 1.518, 1.518, 1.518, 1.518, 1.516, 1.517, 1.518, 1.519, 1.52, 1.52, 1.52, 1.52, 1.519, 1.519, 1.519, 1.519, 1.519, 1.519, 1.519, 1.519, 1.524, 1.524, 1.524, 1.525, 1.525, 1.525, 1.524, 1.523, 1.522, 1.522, 1.521, 1.521, 1.521, 1.521, 1.521, 1.521, 1.52, 1.519, 1.518, 1.518, 1.517, 1.516, 1.516, 1.516, 1.516, 1.516, 1.516, 1.516, 1.516, 1.516, 1.516, 1.516, 1.516, 1.516, 1.516, 1.516, 1.516, 1.516, 1.516, 1.516, 1.516, 1.516, 1.513, 1.513, 1.513, 1.513, 1.513, 1.513, 1.513, 1.513, 1.513, 1.513, 1.513, 1.513, 1.513, 1.513, 1.513, 1.513, 1.513, 1.513, 1.513, 1.513, 1.513, 1.513, 1.513, 1.513, 1.513, 1.513, 1.513, 1.513, 1.513, 1.513, 1.513, 1.513, 1.513, 1.513, 1.513, 1.513, 1.513, 1.513, 1.513, 1.513, 1.513, 1.506, 1.506, 1.506, 1.506, 1.506, 1.506, 1.506, 1.506, 1.506, 1.506, 1.506, 1.506, 1.506, 1.506, 1.506, 1.506, 1.506, 1.506, 1.506, 1.506, 1.506, 1.506, 1.506, 1.506, 1.506, 1.506, 1.506, 1.506, 1.506, 1.506, 1.506, 1.506, 1.506, 1.506, 1.506, 1.506, 1.506, 1.506, 1.506, 1.506, 1.506, 1.506, 1.506, 1.506, 1.506, 1.506, 1.506, 1.506, 1.506, 1.506, 1.506, 1.506, 1.506, 1.506, 1.506, 1.506, 1.506, 1.506, 1.506, 1.506, 1.506, 1.506, 1.506, 1.506, 1.506, 1.506, 1.506, 1.506, 1.506, 1.506, 1.506, 1.506, 1.506, 1.506, 1.506, 1.506, 1.506, 1.506, 1.506, 1.506, 1.503, 1.502, 1.502, 1.502, 1.502, 1.502, 1.502, 1.502, 1.502, 1.502, 1.502, 1.502, 1.502, 1.502, 1.502, 1.502, 1.502, 1.502, 1.502, 1.502, 1.502, 1.502, 1.502, 1.502, 1.502, 1.502, 1.502, 1.502, 1.502, 1.502, 1.502, 1.502, 1.502, 1.502, 1.502, 1.502, 1.502, 1.502, 1.502, 1.502, 1.502, 1.502, 1.502, 1.502, 1.502, 1.502, 1.502, 1.502, 1.502, 1.502, 1.502, 1.502, 1.502, 1.502, 1.502, 1.502, 1.502, 1.502, 1.502, 1.502, 1.502, 1.502, 1.502, 1.502, 1.502, 1.502, 1.502, 1.502, 1.502, 1.502, 1.502, 1.502, 1.502, 1.502, 1.502, 1.502, 1.502, 1.502, 1.502, 1.502, 1.502, 1.502, 1.502, 1.502, 1.502, 1.502, 1.502, 1.502, 1.502, 1.502, 1.502, 1.502, 1.502, 1.502, 1.502, 1.502, 1.502, 1.502, 1.502, 1.502, 1.502, 1.502, 1.502, 1.502, 1.502, 1.502, 1.502, 1.502, 1.502, 1.502, 1.502, 1.502, 1.502, 1.502, 1.502, 1.502, 1.502, 1.502, 1.502, 1.502, 1.502, 1.502, 1.502, 1.502, 1.502, 1.502, 1.502, 1.502, 1.502, 1.502, 1.502, 1.502, 1.502, 1.502, 1.502, 1.502, 1.502, 1.502, 1.502, 1.502, 1.502, 1.502, 1.502, 4.385, 4.385, 4.385, 4.385, 4.385, 4.385, 4.385, 4.385, 4.385, 4.385, 4.385, 4.385, 4.385, 4.385, 4.385, 4.385, 4.385, 4.385, 4.385, 4.385, 4.385, 4.385, 4.385, 4.385, 4.385, 4.385
0, 0, 0, 0, 0, 0, 0, 0, 0, 0, 0, 0, 0, 0, 0, 0, 0, 0, 1.526, 1.526, 1.526, 1.525, 1.524, 1.526, 1.522, 1.522, 1.522, 1.522, 1.522, 1.521, 1.52, 1.519, 1.518, 1.517, 1.516, 1.516, 1.513, 1.513, 1.513, 1.522, 1.522, 1.522, 1.522, 1.522, 1.522, 1.522, 1.522, 1.522, 1.522, 1.522, 1.528, 1.528, 1.528, 1.531, 1.531, 1.531, 1.531, 1.525, 1.525, 1.524, 1.524, 1.524, 1.523, 1.523, 1.524, 1.525, 1.525, 1.525, 1.525, 1.525, 1.525, 1.525, 1.525, 1.525, 1.525, 1.518, 1.518, 1.519, 1.519, 1.522, 1.522, 1.523, 1.523, 1.523, 1.522, 1.521, 1.52, 1.519, 1.518, 1.517, 1.517, 1.512, 1.512, 1.511, 1.511, 1.512, 1.512, 1.513, 1.516, 1.517, 1.518, 1.519, 1.519, 1.519, 1.519, 1.518, 1.518, 1.518, 1.519, 1.519, 1.52, 1.52, 1.52, 1.52, 1.523, 1.523, 1.524, 1.524, 1.524, 1.523, 1.522, 1.521, 1.52, 1.52, 1.52, 1.52, 1.52, 1.52, 1.52, 1.519, 1.518, 1.518, 1.517, 1.516, 1.516, 1.516, 1.512, 1.512, 1.512, 1.516, 1.516, 1.516, 1.516, 1.516, 1.516, 1.516, 1.516, 1.516, 1.516, 1.516, 1.512, 1.512, 1.516, 1.516, 1.512, 1.512, 1.512, 1.511, 1.511, 1.511, 1.513, 1.513, 1.513, 1.513, 1.516, 1.516, 1.516, 1.517, 1.516, 1.516, 1.516, 1.512, 1.511, 1.511, 1.51, 1.507, 1.507, 1.513, 1.513, 1.513, 1.513, 1.513, 1.513, 1.513, 1.513, 1.513, 1.513, 1.513, 1.513, 1.513, 1.513, 1.513, 1.513, 1.513, 1.513, 1.504, 1.505, 1.505, 1.505, 1.507, 1.507, 1.507, 1.507, 1.507, 1.507, 1.507, 1.507, 1.507, 1.507, 1.507, 1.507, 1.507, 1.507, 1.507, 1.507, 1.507, 1.507, 1.507, 1.507, 1.507, 1.507, 1.507, 1.507, 1.507, 1.507, 1.509, 1.509, 1.509, 1.51, 1.512, 1.517, 1.517, 1.518, 1.518, 1.517, 1.517, 1.517, 1.517, 1.517, 1.517, 1.517, 1.517, 1.511, 1.511, 1.511, 1.511, 1.511, 1.511, 1.511, 1.511, 1.511, 1.511, 1.511, 1.511, 1.511, 1.511, 1.511, 1.511, 1.511, 1.511, 1.511, 1.511, 1.511, 1.511, 1.511, 1.511, 1.511, 1.511, 1.511, 1.511, 1.511, 1.511, 1.511, 1.511, 1.511, 1.511, 1.502, 1.501, 1.501, 1.501, 1.495, 1.491, 1.491, 1.502, 1.502, 1.502, 1.502, 1.502, 1.502, 1.502, 1.502, 1.502, 1.502, 1.502, 1.502, 1.502, 1.502, 1.502, 1.502, 1.502, 1.502, 1.502, 1.502, 1.502, 1.502, 1.502, 1.502, 1.502, 1.502, 1.502, 1.502, 1.502, 1.502, 1.502, 1.502, 1.502, 1.502, 1.502, 1.502, 1.502, 1.502, 1.502, 1.502, 1.502, 1.502, 1.502, 1.502, 1.502, 1.502, 1.502, 1.502, 1.502, 1.502, 1.502, 1.502, 1.502, 1.502, 1.502, 1.502, 1.502, 1.502, 1.502, 1.502, 1.502, 1.502, 1.502, 1.502, 1.502, 1.502, 1.502, 1.502, 1.502, 1.502, 1.502, 1.502, 1.502, 1.502, 1.502, 1.502, 1.502, 1.502, 1.502, 1.502, 1.502, 1.502, 1.502, 1.502, 1.502, 1.502, 1.502, 1.502, 1.502, 1.502, 1.502, 1.502, 1.502, 1.502, 1.502, 1.502, 1.502, 1.502, 1.502, 1.502, 1.502, 1.502, 1.502, 1.502, 1.475, 1.474, 1.473, 1.474, 1.474, 1.502, 1.502, 1.502, 1.502, 1.502, 1.502, 1.502, 1.502, 1.502, 1.502, 1.502, 1.473, 1.473, 1.473, 1.473, 1.473, 1.502, 1.502, 1.502, 1.502, 1.502, 1.502, 1.502, 1.502, 1.502, 1.502, 1.502, 4.385, 4.385, 4.385, 4.385, 4.385, 4.385, 4.385, 4.385, 4.385, 4.385, 4.385, 4.385, 4.385, 4.385, 4.385, 4.385, 4.385, 4.385, 4.385, 4.385, 4.385, 4.385, 4.385, 4.385, 4.385, 4.385
0, 0, 0, 0, 0, 0, 0, 0, 0, 0, 0, 0, 0, 0, 0, 0, 1.531, 1.531, 1.527, 1.526, 1.525, 1.524, 1.523, 1.522, 1.521, 1.521, 1.521, 1.521, 1.521, 1.521, 1.52, 1.519, 1.517, 1.517, 1.516, 1.513, 1.513, 1.513, 1.513, 1.512, 1.512, 1.511, 1.511, 1.512, 1.512, 1.513, 1.513, 1.518, 1.518, 1.522, 1.523, 1.528, 1.528, 1.531, 1.531, 1.528, 1.527, 1.526, 1.525, 1.524, 1.524, 1.524, 1.524, 1.524, 1.525, 1.526, 1.527, 1.528, 1.527, 1.526, 1.526, 1.522, 1.521, 1.519, 1.518, 1.518, 1.518, 1.518, 1.518, 1.521, 1.522, 1.522, 1.522, 1.522, 1.521, 1.52, 1.519, 1.518, 1.517, 1.517, 1.513, 1.512, 1.512, 1.511, 1.511, 1.511, 1.512, 1.513, 1.513, 1.517, 1.517, 1.518, 1.518, 1.518, 1.518, 1.517, 1.517, 1.517, 1.513, 1.513, 1.513, 1.516, 1.519, 1.52, 1.521, 1.522, 1.523, 1.523, 1.523, 1.522, 1.521, 1.52, 1.52, 1.52, 1.52, 1.52, 1.52, 1.519, 1.519, 1.518, 1.518, 1.517, 1.516, 1.516, 1.513, 1.512, 1.512, 1.512, 1.512, 1.512, 1.512, 1.516, 1.516, 1.516, 1.516, 1.516, 1.516, 1.516, 1.511, 1.511, 1.511, 1.511, 1.511, 1.511, 1.511, 1.511, 1.511, 1.511, 1.51, 1.51, 1.513, 1.513, 1.511, 1.511, 1.512, 1.512, 1.516, 1.516, 1.513, 1.512, 1.511, 1.511, 1.511, 1.51, 1.509, 1.507, 1.507, 1.513, 1.513, 1.513, 1.513, 1.513, 1.504, 1.503, 1.503, 1.503, 1.513, 1.513, 1.513, 1.513, 1.513, 1.513, 1.513, 1.513, 1.503, 1.503, 1.503, 1.503, 1.503, 1.503, 1.503, 1.503, 1.503, 1.503, 1.501, 1.501, 1.507, 1.507, 1.507, 1.507, 1.507, 1.507, 1.507, 1.507, 1.507, 1.507, 1.507, 1.507, 1.507, 1.507, 1.507, 1.507, 1.507, 1.507, 1.507, 1.509, 1.508, 1.508, 1.509, 1.511, 1.512, 1.513, 1.513, 1.517, 1.517, 1.517, 1.516, 1.513, 1.513, 1.512, 1.517, 1.517, 1.51, 1.511, 1.511, 1.511, 1.511, 1.511, 1.511, 1.511, 1.511, 1.511, 1.511, 1.511, 1.511, 1.511, 1.511, 1.511, 1.511, 1.511, 1.511, 1.511, 1.511, 1.511, 1.511, 1.511, 1.511, 1.511, 1.511, 1.511, 1.511, 1.511, 1.511, 1.511, 1.5, 1.5, 1.501, 1.5, 1.496, 1.495, 1.495, 1.49, 1.49, 1.502, 1.502, 1.502, 1.502, 1.502, 1.502, 1.502, 1.502, 1.502, 1.502, 1.502, 1.502, 1.502, 1.502, 1.502, 1.502, 1.502, 1.502, 1.502, 1.502, 1.502, 1.502, 1.502, 1.502, 1.502, 1.502, 1.499, 1.499, 1.502, 1.502, 1.502, 1.502, 1.502, 1.502, 1.502, 1.502, 1.502, 1.502, 1.502, 1.502, 1.502, 1.489, 1.489, 1.502, 1.502, 1.502, 1.502, 1.502, 1.502, 1.502, 1.502, 1.502, 1.502, 1.502, 1.502, 1.502, 1.502, 1.502, 1.502, 1.502, 1.502, 1.502, 1.502, 1.502, 1.502, 1.502, 1.502, 1.502, 1.502, 1.502, 1.502, 1.502, 1.502, 1.502, 1.502, 1.502, 1.502, 1.502, 1.502, 1.502, 1.502, 1.502, 1.502, 1.502, 1.502, 1.502, 1.502, 1.502, 1.502, 1.502, 1.502, 1.479, 1.48, 1.48, 1.48, 1.48, 1.48, 1.479, 1.479, 1.478, 1.476, 1.476, 1.475, 1.475, 1.474, 1.473, 1.472, 1.473, 1.47, 1.47, 1.47, 1.47, 1.47, 1.47, 1.471, 1.471, 1.474, 1.473, 1.473, 1.473, 1.472, 1.472, 1.472, 1.472, 1.472, 1.472, 1.473, 1.474, 1.502, 1.502, 1.502, 1.478, 1.478, 1.502, 1.502, 1.502, 4.385, 4.385, 4.385, 4.385, 4.385, 4.385, 4.385, 4.385, 4.385, 4.385, 4.385, 4.385, 4.385, 4.385, 4.385, 4.385, 4.385, 4.385, 4.385, 4.385, 4.385, 4.385, 4.385, 4.385, 4.385, 4.385
1.518, 1.518, 1.518, 1.518, 1.518, 1.518, 1.518, 1.518, 1.518, 1.518, 1.518, 1.518, 1.518, 1.518, 1.518, 1.531, 1.531, 1.531, 1.527, 1.526, 1.525, 1.524, 1.522, 1.522, 1.521, 1.52, 1.52, 1.52, 1.52, 1.52, 1.52, 1.518, 1.517, 1.516, 1.516, 1.513, 1.513, 1.513, 1.512, 1.512, 1.511, 1.511, 1.511, 1.511, 1.512, 1.512, 1.513, 1.517, 1.518, 1.522, 1.523, 1.527, 1.528, 1.528, 1.528, 1.528, 1.527, 1.526, 1.524, 1.524, 1.524, 1.524, 1.524, 1.525, 1.526, 1.527, 1.527, 1.528, 1.527, 1.526, 1.525, 1.521, 1.52, 1.519, 1.517, 1.517, 1.517, 1.518, 1.518, 1.52, 1.52, 1.521, 1.521, 1.521, 1.52, 1.519, 1.518, 1.517, 1.516, 1.516, 1.513, 1.512, 1.511, 1.511, 1.511, 1.511, 1.512, 1.512, 1.513, 1.516, 1.517, 1.517, 1.518, 1.518, 1.517, 1.517, 1.513, 1.513, 1.513, 1.513, 1.513, 1.517, 1.518, 1.519, 1.52, 1.521, 1.522, 1.522, 1.522, 1.521, 1.52, 1.519, 1.519, 1.518, 1.518, 1.518, 1.518, 1.518, 1.518, 1.518, 1.517, 1.517, 1.516, 1.513, 1.513, 1.512, 1.511, 1.511, 1.511, 1.511, 1.511, 1.511, 1.512, 1.512, 1.513, 1.512, 1.511, 1.511, 1.511, 1.511, 1.51, 1.51, 1.51, 1.51, 1.51, 1.51, 1.51, 1.509, 1.509, 1.509, 1.509, 1.509, 1.51, 1.511, 1.511, 1.512, 1.512, 1.512, 1.512, 1.512, 1.511, 1.511, 1.51, 1.509, 1.508, 1.506, 1.503, 1.503, 1.503, 1.503, 1.504, 1.513, 1.504, 1.503, 1.503, 1.503, 1.513, 1.513, 1.513, 1.513, 1.513, 1.501, 1.501, 1.501, 1.502, 1.502, 1.503, 1.503, 1.503, 1.503, 1.503, 1.502, 1.502, 1.499, 1.5, 1.5, 1.507, 1.507, 1.507, 1.507, 1.507, 1.507, 1.507, 1.507, 1.507, 1.507, 1.507, 1.507, 1.507, 1.507, 1.507, 1.507, 1.507, 1.507, 1.507, 1.509, 1.507, 1.507, 1.509, 1.51, 1.511, 1.512, 1.513, 1.513, 1.513, 1.513, 1.513, 1.513, 1.512, 1.511, 1.511, 1.51, 1.509, 1.507, 1.506, 1.505, 1.511, 1.511, 1.511, 1.511, 1.511, 1.511, 1.511, 1.511, 1.511, 1.511, 1.511, 1.511, 1.511, 1.511, 1.511, 1.511, 1.511, 1.511, 1.511, 1.511, 1.511, 1.511, 1.511, 1.511, 1.511, 1.511, 1.496, 1.496, 1.5, 1.5, 1.5, 1.496, 1.495, 1.495, 1.492, 1.488, 1.486, 1.486, 1.502, 1.502, 1.502, 1.502, 1.502, 1.502, 1.502, 1.502, 1.502, 1.502, 1.502, 1.502, 1.502, 1.502, 1.502, 1.502, 1.502, 1.502, 1.502, 1.502, 1.502, 1.494, 1.494, 1.495, 1.495, 1.495, 1.495, 1.502, 1.502, 1.502, 1.502, 1.502, 1.49, 1.49, 1.489, 1.489, 1.488, 1.488, 1.488, 1.488, 1.488, 1.488, 1.487, 1.487, 1.487, 1.486, 1.486, 1.486, 1.502, 1.502, 1.502, 1.502, 1.502, 1.502, 1.502, 1.502, 1.502, 1.479, 1.476, 1.476, 1.475, 1.502, 1.502, 1.502, 1.502, 1.502, 1.502, 1.502, 1.502, 1.502, 1.502, 1.502, 1.502, 1.502, 1.502, 1.502, 1.502, 1.502, 1.502, 1.502, 1.502, 1.502, 1.502, 1.502, 1.502, 1.502, 1.502, 1.502, 1.477, 1.478, 1.478, 1.479, 1.479, 1.48, 1.48, 1.48, 1.479, 1.478, 1.477, 1.476, 1.475, 1.474, 1.472, 1.472, 1.471, 1.471, 1.468, 1.468, 1.468, 1.468, 1.468, 1.468, 1.468, 1.471, 1.471, 1.471, 1.472, 1.472, 1.472, 1.471, 1.471, 1.471, 1.471, 1.471, 1.472, 1.472, 1.473, 1.474, 1.474, 1.474, 1.477, 1.473, 1.473, 1.502, 1.502, 4.385, 4.385, 4.385, 4.385, 4.385, 4.385, 4.385, 4.385, 4.385, 4.385, 4.385, 4.385, 4.385, 4.385, 4.385, 4.385, 4.385, 4.385, 4.385, 4.385, 4.385, 4.385, 4.385, 4.385, 4.385, 4.385
1.521, 1.521, 1.521, 1.521, 1.521, 1.521, 1.521, 1.521, 1.521, 1.521, 1.521, 1.521, 1.521, 1.521, 1.521, 1.531, 1.531, 1.528, 1.527, 1.526, 1.525, 1.523, 1.522, 1.522, 1.52, 1.52, 1.52, 1.52, 1.52, 1.52, 1.519, 1.518, 1.517, 1.516, 1.516, 1.513, 1.513, 1.512, 1.512, 1.511, 1.511, 1.511, 1.511, 1.511, 1.511, 1.512, 1.512, 1.517, 1.517, 1.522, 1.525, 1.526, 1.527, 1.528, 1.528, 1.527, 1.526, 1.525, 1.524, 1.524, 1.523, 1.524, 1.524, 1.525, 1.526, 1.527, 1.528, 1.528, 1.527, 1.526, 1.525, 1.521, 1.519, 1.518, 1.517, 1.516, 1.516, 1.517, 1.518, 1.518, 1.519, 1.52, 1.52, 1.52, 1.519, 1.518, 1.517, 1.517, 1.516, 1.513, 1.513, 1.512, 1.511, 1.511, 1.511, 1.511, 1.512, 1.512, 1.513, 1.516, 1.516, 1.517, 1.517, 1.517, 1.516, 1.516, 1.513, 1.512, 1.512, 1.512, 1.512, 1.512, 1.517, 1.518, 1.518, 1.522, 1.521, 1.521, 1.521, 1.52, 1.519, 1.518, 1.518, 1.518, 1.518, 1.518, 1.518, 1.518, 1.518, 1.517, 1.517, 1.516, 1.513, 1.512, 1.512, 1.511, 1.51, 1.51, 1.51, 1.51, 1.511, 1.511, 1.511, 1.512, 1.512, 1.511, 1.511, 1.511, 1.51, 1.51, 1.509, 1.509, 1.509, 1.509, 1.509, 1.509, 1.509, 1.509, 1.509, 1.509, 1.509, 1.509, 1.509, 1.51, 1.511, 1.511, 1.511, 1.511, 1.511, 1.511, 1.511, 1.51, 1.51, 1.509, 1.506, 1.505, 1.503, 1.503, 1.503, 1.503, 1.503, 1.503, 1.503, 1.503, 1.503, 1.502, 1.502, 1.501, 1.501, 1.513, 1.499, 1.5, 1.501, 1.501, 1.501, 1.501, 1.502, 1.502, 1.502, 1.502, 1.502, 1.502, 1.501, 1.5, 1.5, 1.5, 1.507, 1.507, 1.507, 1.507, 1.507, 1.507, 1.507, 1.507, 1.507, 1.507, 1.507, 1.507, 1.507, 1.507, 1.507, 1.507, 1.507, 1.507, 1.507, 1.502, 1.502, 1.506, 1.507, 1.509, 1.511, 1.512, 1.512, 1.513, 1.512, 1.512, 1.512, 1.512, 1.512, 1.509, 1.509, 1.507, 1.507, 1.506, 1.505, 1.505, 1.511, 1.511, 1.511, 1.511, 1.511, 1.511, 1.511, 1.511, 1.511, 1.511, 1.511, 1.511, 1.511, 1.492, 1.492, 1.492, 1.492, 1.492, 1.492, 1.511, 1.488, 1.487, 1.487, 1.487, 1.487, 1.49, 1.491, 1.495, 1.495, 1.499, 1.499, 1.496, 1.495, 1.494, 1.49, 1.488, 1.484, 1.481, 1.481, 1.477, 1.474, 1.474, 1.473, 1.473, 1.472, 1.472, 1.473, 1.474, 1.474, 1.475, 1.476, 1.476, 1.478, 1.479, 1.48, 1.482, 1.484, 1.486, 1.487, 1.492, 1.493, 1.494, 1.494, 1.494, 1.494, 1.493, 1.493, 1.491, 1.49, 1.49, 1.489, 1.489, 1.488, 1.488, 1.488, 1.487, 1.487, 1.487, 1.487, 1.486, 1.486, 1.486, 1.486, 1.485, 1.485, 1.485, 1.502, 1.502, 1.502, 1.484, 1.483, 1.483, 1.481, 1.48, 1.479, 1.478, 1.476, 1.475, 1.475, 1.474, 1.474, 1.502, 1.502, 1.502, 1.502, 1.502, 1.502, 1.502, 1.502, 1.502, 1.502, 1.502, 1.502, 1.502, 1.502, 1.502, 1.472, 1.472, 1.472, 1.472, 1.472, 1.473, 1.473, 1.474, 1.475, 1.475, 1.476, 1.477, 1.477, 1.478, 1.479, 1.479, 1.48, 1.479, 1.478, 1.478, 1.476, 1.475, 1.474, 1.473, 1.472, 1.471, 1.471, 1.468, 1.468, 1.468, 1.466, 1.466, 1.466, 1.466, 1.468, 1.468, 1.47, 1.47, 1.47, 1.471, 1.471, 1.47, 1.47, 1.47, 1.47, 1.471, 1.471, 1.472, 1.472, 1.473, 1.473, 1.473, 1.472, 1.472, 1.472, 1.472, 1.472, 4.385, 4.385, 4.385, 4.385, 4.385, 4.385, 4.385, 4.385, 4.385, 4.385, 4.385, 4.385, 4.385, 4.385, 4.385, 4.385, 4.385, 4.385, 4.385, 4.385, 4.385, 4.385, 4.385, 4.385, 4.385, 4.385
1.522, 1.522, 1.522, 1.522, 1.522, 1.522, 1.522, 1.522, 1.522, 1.522, 1.522, 1.522, 1.522, 1.522, 1.522, 1.531, 1.531, 1.528, 1.527, 1.526, 1.524, 1.522, 1.521, 1.518, 1.518, 1.519, 1.519, 1.519, 1.519, 1.519, 1.519, 1.518, 1.517, 1.517, 1.516, 1.513, 1.513, 1.512, 1.511, 1.511, 1.511, 1.51, 1.51, 1.511, 1.511, 1.511, 1.512, 1.517, 1.517, 1.52, 1.524, 1.525, 1.526, 1.527, 1.527, 1.526, 1.525, 1.524, 1.523, 1.522, 1.522, 1.523, 1.523, 1.523, 1.526, 1.527, 1.528, 1.528, 1.527, 1.526, 1.524, 1.52, 1.518, 1.517, 1.516, 1.516, 1.516, 1.516, 1.517, 1.518, 1.518, 1.519, 1.519, 1.519, 1.518, 1.518, 1.517, 1.516, 1.516, 1.513, 1.513, 1.512, 1.511, 1.511, 1.511, 1.511, 1.511, 1.512, 1.513, 1.513, 1.516, 1.516, 1.516, 1.516, 1.516, 1.516, 1.513, 1.512, 1.511, 1.511, 1.511, 1.512, 1.517, 1.517, 1.518, 1.518, 1.519, 1.519, 1.518, 1.518, 1.517, 1.517, 1.517, 1.517, 1.517, 1.517, 1.517, 1.517, 1.517, 1.517, 1.516, 1.513, 1.512, 1.511, 1.511, 1.51, 1.509, 1.509, 1.509, 1.509, 1.512, 1.511, 1.511, 1.512, 1.512, 1.511, 1.51, 1.509, 1.509, 1.509, 1.509, 1.509, 1.508, 1.508, 1.508, 1.508, 1.508, 1.508, 1.508, 1.508, 1.508, 1.508, 1.509, 1.509, 1.51, 1.511, 1.511, 1.511, 1.51, 1.51, 1.51, 1.509, 1.509, 1.509, 1.505, 1.504, 1.503, 1.503, 1.503, 1.503, 1.503, 1.503, 1.503, 1.503, 1.502, 1.502, 1.501, 1.5, 1.5, 1.5, 1.5, 1.5, 1.501, 1.501, 1.501, 1.501, 1.501, 1.501, 1.502, 1.502, 1.502, 1.502, 1.501, 1.5, 1.499, 1.499, 1.499, 1.499, 1.499, 1.499, 1.499, 1.507, 1.507, 1.507, 1.495, 1.494, 1.494, 1.494, 1.494, 1.494, 1.507, 1.507, 1.507, 1.507, 1.507, 1.501, 1.502, 1.504, 1.505, 1.507, 1.508, 1.512, 1.512, 1.512, 1.512, 1.511, 1.511, 1.511, 1.511, 1.508, 1.508, 1.507, 1.506, 1.505, 1.504, 1.501, 1.5, 1.499, 1.499, 1.499, 1.499, 1.496, 1.496, 1.511, 1.511, 1.511, 1.511, 1.511, 1.492, 1.492, 1.492, 1.492, 1.492, 1.492, 1.491, 1.49, 1.488, 1.487, 1.486, 1.486, 1.487, 1.49, 1.49, 1.493, 1.496, 1.495, 1.495, 1.495, 1.494, 1.493, 1.49, 1.486, 1.484, 1.481, 1.48, 1.476, 1.474, 1.474, 1.473, 1.472, 1.472, 1.472, 1.473, 1.473, 1.474, 1.474, 1.475, 1.476, 1.477, 1.478, 1.48, 1.482, 1.484, 1.486, 1.487, 1.491, 1.492, 1.492, 1.493, 1.493, 1.493, 1.492, 1.491, 1.49, 1.489, 1.489, 1.488, 1.488, 1.488, 1.488, 1.487, 1.487, 1.486, 1.486, 1.486, 1.486, 1.485, 1.485, 1.484, 1.484, 1.484, 1.484, 1.502, 1.502, 1.502, 1.484, 1.483, 1.482, 1.481, 1.48, 1.478, 1.477, 1.476, 1.475, 1.474, 1.474, 1.474, 1.474, 1.474, 1.474, 1.502, 1.502, 1.502, 1.502, 1.502, 1.502, 1.502, 1.502, 1.502, 1.502, 1.473, 1.472, 1.472, 1.471, 1.471, 1.471, 1.471, 1.472, 1.472, 1.473, 1.474, 1.475, 1.475, 1.476, 1.476, 1.477, 1.478, 1.479, 1.479, 1.479, 1.478, 1.477, 1.476, 1.474, 1.473, 1.472, 1.471, 1.47, 1.468, 1.468, 1.468, 1.466, 1.466, 1.464, 1.464, 1.466, 1.466, 1.468, 1.469, 1.47, 1.47, 1.47, 1.47, 1.47, 1.47, 1.47, 1.47, 1.47, 1.471, 1.471, 1.472, 1.472, 1.472, 1.472, 1.472, 1.471, 1.471, 1.471, 1.472, 4.385, 4.385, 4.385, 4.385, 4.385, 4.385, 4.385, 4.385, 4.385, 4.385, 4.385, 4.385, 4.385, 4.385, 4.385, 4.385, 4.385, 4.385, 4.385, 4.385, 4.385, 4.385, 4.385, 4.385, 4.385, 4.385
1.522, 1.522, 1.522, 1.522, 1.522, 1.522, 1.522, 1.522, 1.522, 1.522, 1.522, 1.522, 1.522, 1.522, 1.532, 1.532, 1.532, 1.528, 1.527, 1.526, 1.525, 1.521, 1.52, 1.519, 1.518, 1.518, 1.518, 1.518, 1.518, 1.518, 1.518, 1.518, 1.517, 1.517, 1.513, 1.513, 1.512, 1.512, 1.511, 1.511, 1.51, 1.51, 1.51, 1.51, 1.511, 1.511, 1.512, 1.516, 1.517, 1.52, 1.524, 1.525, 1.526, 1.527, 1.528, 1.525, 1.524, 1.522, 1.522, 1.521, 1.521, 1.521, 1.522, 1.522, 1.526, 1.527, 1.527, 1.527, 1.527, 1.526, 1.523, 1.52, 1.517, 1.517, 1.513, 1.513, 1.512, 1.512, 1.512, 1.517, 1.517, 1.517, 1.518, 1.518, 1.517, 1.517, 1.516, 1.516, 1.513, 1.513, 1.513, 1.512, 1.511, 1.511, 1.511, 1.511, 1.511, 1.512, 1.512, 1.513, 1.516, 1.516, 1.516, 1.516, 1.516, 1.513, 1.512, 1.511, 1.511, 1.511, 1.511, 1.512, 1.513, 1.517, 1.517, 1.517, 1.518, 1.518, 1.517, 1.517, 1.512, 1.511, 1.511, 1.511, 1.511, 1.512, 1.512, 1.513, 1.513, 1.513, 1.512, 1.512, 1.511, 1.511, 1.51, 1.509, 1.509, 1.508, 1.508, 1.509, 1.51, 1.511, 1.511, 1.511, 1.511, 1.51, 1.509, 1.509, 1.509, 1.508, 1.508, 1.507, 1.507, 1.507, 1.507, 1.507, 1.507, 1.507, 1.507, 1.507, 1.507, 1.507, 1.508, 1.508, 1.508, 1.508, 1.508, 1.509, 1.509, 1.509, 1.507, 1.506, 1.505, 1.504, 1.504, 1.503, 1.502, 1.502, 1.502, 1.501, 1.502, 1.502, 1.503, 1.503, 1.502, 1.501, 1.501, 1.499, 1.499, 1.496, 1.496, 1.496, 1.501, 1.501, 1.501, 1.501, 1.501, 1.501, 1.501, 1.502, 1.501, 1.501, 1.5, 1.499, 1.499, 1.499, 1.499, 1.499, 1.499, 1.499, 1.499, 1.496, 1.496, 1.496, 1.495, 1.494, 1.494, 1.494, 1.494, 1.493, 1.492, 1.492, 1.493, 1.493, 1.494, 1.5, 1.502, 1.503, 1.505, 1.505, 1.506, 1.511, 1.511, 1.511, 1.511, 1.51, 1.51, 1.51, 1.51, 1.507, 1.507, 1.506, 1.505, 1.504, 1.502, 1.501, 1.5, 1.5, 1.496, 1.496, 1.496, 1.495, 1.495, 1.494, 1.511, 1.491, 1.49, 1.491, 1.491, 1.492, 1.492, 1.492, 1.492, 1.491, 1.49, 1.489, 1.488, 1.487, 1.486, 1.486, 1.487, 1.488, 1.49, 1.491, 1.492, 1.493, 1.494, 1.493, 1.492, 1.492, 1.488, 1.484, 1.483, 1.48, 1.476, 1.475, 1.474, 1.474, 1.473, 1.472, 1.472, 1.472, 1.472, 1.473, 1.474, 1.474, 1.475, 1.476, 1.477, 1.478, 1.48, 1.482, 1.483, 1.485, 1.486, 1.49, 1.491, 1.491, 1.491, 1.492, 1.492, 1.492, 1.49, 1.489, 1.488, 1.488, 1.488, 1.488, 1.488, 1.487, 1.487, 1.486, 1.486, 1.485, 1.485, 1.485, 1.484, 1.484, 1.483, 1.483, 1.482, 1.482, 1.502, 1.502, 1.502, 1.502, 1.482, 1.481, 1.48, 1.479, 1.478, 1.477, 1.476, 1.475, 1.474, 1.474, 1.474, 1.473, 1.473, 1.474, 1.474, 1.474, 1.475, 1.502, 1.502, 1.502, 1.502, 1.502, 1.475, 1.474, 1.473, 1.472, 1.472, 1.471, 1.47, 1.47, 1.471, 1.472, 1.472, 1.472, 1.473, 1.474, 1.474, 1.475, 1.475, 1.476, 1.478, 1.478, 1.479, 1.479, 1.478, 1.477, 1.476, 1.474, 1.472, 1.472, 1.471, 1.468, 1.466, 1.466, 1.466, 1.466, 1.464, 1.464, 1.464, 1.466, 1.466, 1.468, 1.469, 1.469, 1.469, 1.469, 1.468, 1.468, 1.468, 1.468, 1.468, 1.468, 1.468, 1.471, 1.471, 1.471, 1.472, 1.471, 1.471, 1.471, 1.468, 1.468, 1.472, 4.385, 4.385, 4.385, 4.385, 4.385, 4.385, 4.385, 4.385, 4.385, 4.385, 4.385, 4.385, 4.385, 4.385, 4.385, 4.385, 4.385, 4.385, 4.385, 4.385, 4.385, 4.385, 4.385, 4.385, 4.385, 4.385
1.523, 1.523, 1.523, 1.523, 1.523, 1.523, 1.523, 1.523, 1.523, 1.523, 1.523, 1.523, 1.523, 1.523, 1.533, 1.533, 1.532, 1.527, 1.526, 1.525, 1.524, 1.52, 1.519, 1.518, 1.518, 1.518, 1.518, 1.518, 1.518, 1.518, 1.518, 1.518, 1.517, 1.516, 1.513, 1.513, 1.512, 1.511, 1.511, 1.51, 1.51, 1.509, 1.509, 1.509, 1.51, 1.511, 1.511, 1.512, 1.516, 1.519, 1.523, 1.524, 1.524, 1.525, 1.524, 1.523, 1.522, 1.521, 1.52, 1.52, 1.52, 1.52, 1.521, 1.522, 1.525, 1.526, 1.527, 1.527, 1.526, 1.524, 1.523, 1.519, 1.517, 1.513, 1.512, 1.512, 1.512, 1.512, 1.512, 1.512, 1.516, 1.517, 1.517, 1.517, 1.516, 1.516, 1.516, 1.516, 1.513, 1.513, 1.513, 1.512, 1.512, 1.511, 1.511, 1.511, 1.511, 1.512, 1.512, 1.513, 1.516, 1.516, 1.516, 1.516, 1.513, 1.513, 1.512, 1.511, 1.51, 1.51, 1.51, 1.511, 1.512, 1.513, 1.516, 1.517, 1.517, 1.517, 1.516, 1.513, 1.512, 1.511, 1.511, 1.511, 1.511, 1.511, 1.512, 1.512, 1.512, 1.512, 1.512, 1.511, 1.511, 1.51, 1.509, 1.508, 1.508, 1.507, 1.508, 1.508, 1.509, 1.51, 1.51, 1.51, 1.51, 1.509, 1.508, 1.508, 1.507, 1.507, 1.507, 1.506, 1.506, 1.506, 1.506, 1.506, 1.506, 1.506, 1.506, 1.506, 1.506, 1.507, 1.507, 1.507, 1.507, 1.507, 1.507, 1.507, 1.507, 1.505, 1.505, 1.505, 1.505, 1.504, 1.503, 1.503, 1.502, 1.501, 1.501, 1.501, 1.501, 1.502, 1.502, 1.502, 1.502, 1.501, 1.502, 1.499, 1.499, 1.496, 1.496, 1.496, 1.496, 1.5, 1.5, 1.5, 1.5, 1.5, 1.5, 1.501, 1.5, 1.5, 1.499, 1.499, 1.499, 1.499, 1.499, 1.499, 1.496, 1.496, 1.499, 1.496, 1.496, 1.496, 1.495, 1.494, 1.494, 1.494, 1.494, 1.493, 1.492, 1.492, 1.492, 1.493, 1.494, 1.495, 1.495, 1.499, 1.5, 1.504, 1.505, 1.506, 1.506, 1.509, 1.509, 1.509, 1.509, 1.509, 1.509, 1.507, 1.507, 1.505, 1.505, 1.502, 1.501, 1.5, 1.5, 1.499, 1.496, 1.496, 1.496, 1.495, 1.494, 1.493, 1.49, 1.49, 1.49, 1.49, 1.491, 1.491, 1.492, 1.492, 1.492, 1.491, 1.49, 1.489, 1.488, 1.487, 1.486, 1.486, 1.486, 1.487, 1.49, 1.49, 1.491, 1.492, 1.492, 1.492, 1.491, 1.487, 1.487, 1.483, 1.482, 1.478, 1.475, 1.475, 1.474, 1.473, 1.472, 1.472, 1.472, 1.472, 1.472, 1.473, 1.473, 1.474, 1.474, 1.476, 1.477, 1.478, 1.48, 1.481, 1.483, 1.484, 1.485, 1.49, 1.49, 1.49, 1.49, 1.49, 1.489, 1.488, 1.488, 1.488, 1.488, 1.487, 1.487, 1.487, 1.487, 1.486, 1.486, 1.486, 1.485, 1.485, 1.484, 1.484, 1.483, 1.483, 1.482, 1.482, 1.481, 1.481, 1.502, 1.502, 1.502, 1.502, 1.481, 1.48, 1.48, 1.479, 1.478, 1.477, 1.476, 1.475, 1.474, 1.474, 1.473, 1.473, 1.473, 1.473, 1.474, 1.474, 1.474, 1.475, 1.476, 1.477, 1.477, 1.476, 1.475, 1.474, 1.473, 1.472, 1.471, 1.47, 1.47, 1.47, 1.471, 1.471, 1.472, 1.472, 1.472, 1.473, 1.474, 1.474, 1.474, 1.474, 1.478, 1.478, 1.478, 1.478, 1.478, 1.476, 1.475, 1.474, 1.472, 1.471, 1.468, 1.466, 1.466, 1.464, 1.464, 1.464, 1.464, 1.464, 1.464, 1.464, 1.464, 1.466, 1.466, 1.468, 1.468, 1.468, 1.466, 1.466, 1.466, 1.466, 1.468, 1.468, 1.468, 1.468, 1.47, 1.47, 1.471, 1.471, 1.471, 1.468, 1.468, 1.466, 1.466, 4.385, 4.385, 4.385, 4.385, 4.385, 4.385, 4.385, 4.385, 4.385, 4.385, 4.385, 4.385, 4.385, 4.385, 4.385, 4.385, 4.385, 4.385, 4.385, 4.385, 4.385, 4.385, 4.385, 4.385, 4.385, 4.385
1.524, 1.524, 1.524, 1.524, 1.524, 1.524, 1.524, 1.524, 1.524, 1.524, 1.524, 1.524, 1.524, 1.537, 1.537, 1.533, 1.532, 1.527, 1.526, 1.524, 1.523, 1.52, 1.519, 1.518, 1.518, 1.517, 1.517, 1.517, 1.518, 1.518, 1.518, 1.518, 1.517, 1.516, 1.516, 1.513, 1.512, 1.511, 1.51, 1.51, 1.509, 1.509, 1.509, 1.509, 1.509, 1.51, 1.511, 1.512, 1.516, 1.518, 1.522, 1.522, 1.523, 1.523, 1.523, 1.522, 1.521, 1.52, 1.519, 1.519, 1.519, 1.52, 1.521, 1.522, 1.524, 1.525, 1.526, 1.526, 1.526, 1.522, 1.522, 1.518, 1.513, 1.512, 1.512, 1.511, 1.511, 1.511, 1.512, 1.512, 1.513, 1.516, 1.516, 1.516, 1.516, 1.516, 1.516, 1.516, 1.516, 1.516, 1.513, 1.513, 1.512, 1.512, 1.512, 1.512, 1.512, 1.512, 1.513, 1.513, 1.516, 1.516, 1.516, 1.516, 1.513, 1.513, 1.512, 1.511, 1.51, 1.51, 1.51, 1.511, 1.512, 1.513, 1.516, 1.516, 1.516, 1.516, 1.516, 1.513, 1.512, 1.511, 1.511, 1.511, 1.511, 1.511, 1.511, 1.511, 1.511, 1.511, 1.511, 1.511, 1.51, 1.509, 1.508, 1.508, 1.507, 1.507, 1.507, 1.508, 1.508, 1.509, 1.509, 1.509, 1.509, 1.508, 1.507, 1.507, 1.506, 1.506, 1.506, 1.505, 1.505, 1.505, 1.505, 1.505, 1.505, 1.505, 1.505, 1.505, 1.506, 1.506, 1.506, 1.507, 1.507, 1.507, 1.507, 1.507, 1.506, 1.505, 1.505, 1.505, 1.505, 1.504, 1.503, 1.503, 1.502, 1.502, 1.502, 1.501, 1.501, 1.502, 1.502, 1.502, 1.501, 1.5, 1.499, 1.499, 1.496, 1.496, 1.496, 1.496, 1.496, 1.499, 1.499, 1.499, 1.499, 1.499, 1.499, 1.5, 1.499, 1.499, 1.496, 1.496, 1.499, 1.499, 1.496, 1.496, 1.496, 1.496, 1.496, 1.496, 1.496, 1.495, 1.495, 1.494, 1.494, 1.494, 1.494, 1.493, 1.492, 1.492, 1.492, 1.493, 1.494, 1.494, 1.495, 1.495, 1.499, 1.499, 1.504, 1.505, 1.505, 1.506, 1.507, 1.507, 1.507, 1.507, 1.505, 1.505, 1.503, 1.503, 1.501, 1.501, 1.5, 1.499, 1.499, 1.496, 1.496, 1.496, 1.495, 1.494, 1.493, 1.493, 1.49, 1.49, 1.49, 1.49, 1.49, 1.49, 1.491, 1.491, 1.491, 1.49, 1.489, 1.488, 1.487, 1.486, 1.486, 1.486, 1.486, 1.486, 1.488, 1.489, 1.49, 1.491, 1.491, 1.49, 1.489, 1.487, 1.486, 1.482, 1.481, 1.478, 1.475, 1.474, 1.473, 1.473, 1.472, 1.472, 1.472, 1.472, 1.472, 1.472, 1.473, 1.474, 1.474, 1.475, 1.476, 1.478, 1.479, 1.48, 1.482, 1.483, 1.484, 1.485, 1.486, 1.487, 1.488, 1.488, 1.488, 1.487, 1.488, 1.487, 1.486, 1.486, 1.486, 1.486, 1.486, 1.486, 1.486, 1.485, 1.485, 1.484, 1.484, 1.483, 1.483, 1.482, 1.481, 1.481, 1.48, 1.48, 1.502, 1.502, 1.502, 1.502, 1.48, 1.48, 1.479, 1.479, 1.478, 1.477, 1.476, 1.475, 1.474, 1.474, 1.473, 1.472, 1.472, 1.473, 1.473, 1.474, 1.474, 1.474, 1.475, 1.476, 1.476, 1.475, 1.474, 1.473, 1.472, 1.471, 1.471, 1.47, 1.47, 1.47, 1.47, 1.471, 1.471, 1.472, 1.472, 1.472, 1.473, 1.473, 1.474, 1.474, 1.477, 1.477, 1.478, 1.478, 1.477, 1.476, 1.475, 1.473, 1.471, 1.468, 1.466, 1.464, 1.464, 1.462, 1.462, 1.462, 1.462, 1.462, 1.462, 1.462, 1.464, 1.464, 1.464, 1.466, 1.466, 1.466, 1.464, 1.464, 1.464, 1.464, 1.466, 1.466, 1.468, 1.468, 1.47, 1.47, 1.47, 1.468, 1.468, 1.468, 1.466, 1.466, 1.466, 1.466, 4.385, 4.385, 4.385, 4.385, 4.385, 4.385, 4.385, 4.385, 4.385, 4.385, 4.385, 4.385, 4.385, 4.385, 4.385, 4.385, 4.385, 4.385, 4.385, 4.385, 4.385, 4.385, 4.385, 4.385, 4.385
1.524, 1.524, 1.524, 1.524, 1.524, 1.524, 1.524, 1.524, 1.524, 1.524, 1.524, 1.524, 1.524, 1.537, 1.537, 1.533, 1.533, 1.527, 1.526, 1.524, 1.523, 1.52, 1.519, 1.518, 1.517, 1.517, 1.517, 1.517, 1.518, 1.518, 1.518, 1.518, 1.517, 1.517, 1.516, 1.513, 1.512, 1.511, 1.51, 1.51, 1.509, 1.509, 1.509, 1.509, 1.509, 1.51, 1.511, 1.512, 1.516, 1.517, 1.521, 1.521, 1.522, 1.522, 1.522, 1.521, 1.52, 1.519, 1.518, 1.518, 1.518, 1.519, 1.52, 1.522, 1.523, 1.525, 1.525, 1.525, 1.525, 1.521, 1.521, 1.517, 1.512, 1.511, 1.511, 1.511, 1.511, 1.511, 1.511, 1.512, 1.513, 1.513, 1.513, 1.516, 1.516, 1.516, 1.516, 1.516, 1.517, 1.517, 1.517, 1.517, 1.512, 1.512, 1.512, 1.512, 1.513, 1.513, 1.513, 1.516, 1.516, 1.516, 1.516, 1.516, 1.516, 1.512, 1.512, 1.511, 1.511, 1.511, 1.511, 1.511, 1.512, 1.512, 1.516, 1.516, 1.516, 1.516, 1.516, 1.512, 1.512, 1.511, 1.511, 1.511, 1.511, 1.511, 1.511, 1.511, 1.511, 1.511, 1.511, 1.51, 1.51, 1.509, 1.508, 1.507, 1.506, 1.506, 1.506, 1.507, 1.507, 1.508, 1.508, 1.508, 1.508, 1.507, 1.506, 1.506, 1.505, 1.505, 1.505, 1.505, 1.505, 1.505, 1.505, 1.505, 1.505, 1.505, 1.505, 1.505, 1.506, 1.506, 1.506, 1.507, 1.507, 1.507, 1.506, 1.506, 1.506, 1.505, 1.505, 1.505, 1.504, 1.504, 1.503, 1.503, 1.503, 1.503, 1.502, 1.502, 1.502, 1.502, 1.502, 1.502, 1.501, 1.5, 1.499, 1.499, 1.496, 1.496, 1.496, 1.496, 1.496, 1.496, 1.499, 1.499, 1.499, 1.499, 1.499, 1.499, 1.499, 1.496, 1.496, 1.496, 1.496, 1.496, 1.496, 1.496, 1.496, 1.496, 1.496, 1.496, 1.496, 1.495, 1.494, 1.494, 1.494, 1.494, 1.494, 1.493, 1.493, 1.492, 1.492, 1.493, 1.494, 1.494, 1.494, 1.495, 1.496, 1.499, 1.502, 1.503, 1.504, 1.505, 1.506, 1.506, 1.506, 1.505, 1.504, 1.503, 1.502, 1.501, 1.501, 1.5, 1.5, 1.496, 1.496, 1.496, 1.496, 1.496, 1.496, 1.493, 1.492, 1.491, 1.49, 1.489, 1.489, 1.489, 1.489, 1.49, 1.49, 1.49, 1.491, 1.49, 1.488, 1.487, 1.486, 1.486, 1.485, 1.485, 1.485, 1.486, 1.487, 1.488, 1.489, 1.49, 1.49, 1.489, 1.488, 1.487, 1.485, 1.481, 1.481, 1.476, 1.475, 1.474, 1.473, 1.472, 1.472, 1.472, 1.472, 1.472, 1.472, 1.472, 1.473, 1.473, 1.474, 1.475, 1.476, 1.477, 1.478, 1.48, 1.481, 1.482, 1.483, 1.484, 1.485, 1.486, 1.486, 1.486, 1.486, 1.485, 1.485, 1.485, 1.485, 1.485, 1.485, 1.485, 1.485, 1.485, 1.485, 1.485, 1.484, 1.484, 1.484, 1.483, 1.482, 1.482, 1.481, 1.48, 1.479, 1.479, 1.478, 1.478, 1.478, 1.478, 1.479, 1.479, 1.478, 1.478, 1.478, 1.477, 1.476, 1.475, 1.474, 1.474, 1.473, 1.472, 1.472, 1.472, 1.473, 1.473, 1.474, 1.474, 1.474, 1.475, 1.475, 1.474, 1.473, 1.472, 1.472, 1.471, 1.468, 1.468, 1.47, 1.47, 1.47, 1.471, 1.471, 1.471, 1.471, 1.472, 1.472, 1.472, 1.473, 1.474, 1.476, 1.477, 1.478, 1.478, 1.477, 1.476, 1.474, 1.473, 1.47, 1.468, 1.466, 1.464, 1.462, 1.462, 1.462, 1.462, 1.462, 1.462, 1.462, 1.462, 1.462, 1.464, 1.464, 1.464, 1.464, 1.464, 1.464, 1.464, 1.464, 1.464, 1.466, 1.466, 1.466, 1.468, 1.47, 1.47, 1.47, 1.468, 1.468, 1.468, 1.466, 1.466, 1.466, 1.466, 1.468, 4.385, 4.385, 4.385, 4.385, 4.385, 4.385, 4.385, 4.385, 4.385, 4.385, 4.385, 4.385, 4.385, 4.385, 4.385, 4.385, 4.385, 4.385, 4.385, 4.385, 4.385, 4.385, 4.385, 4.385
1.524, 1.524, 1.524, 1.524, 1.524, 1.524, 1.524, 1.524, 1.524, 1.524, 1.524, 1.524, 1.524, 1.537, 1.537, 1.533, 1.533, 1.527, 1.526, 1.524, 1.522, 1.52, 1.519, 1.518, 1.517, 1.517, 1.517, 1.517, 1.518, 1.518, 1.518, 1.518, 1.518, 1.518, 1.517, 1.516, 1.512, 1.511, 1.511, 1.51, 1.509, 1.508, 1.508, 1.508, 1.508, 1.509, 1.51, 1.511, 1.516, 1.516, 1.52, 1.52, 1.52, 1.52, 1.521, 1.518, 1.518, 1.517, 1.517, 1.517, 1.517, 1.518, 1.52, 1.521, 1.522, 1.523, 1.524, 1.524, 1.521, 1.521, 1.516, 1.512, 1.511, 1.51, 1.51, 1.51, 1.51, 1.51, 1.511, 1.511, 1.512, 1.513, 1.513, 1.513, 1.516, 1.516, 1.516, 1.517, 1.517, 1.518, 1.518, 1.517, 1.517, 1.513, 1.513, 1.513, 1.513, 1.513, 1.516, 1.516, 1.516, 1.516, 1.516, 1.516, 1.516, 1.512, 1.512, 1.511, 1.511, 1.511, 1.511, 1.511, 1.512, 1.512, 1.516, 1.516, 1.516, 1.516, 1.516, 1.512, 1.512, 1.511, 1.511, 1.511, 1.511, 1.511, 1.511, 1.511, 1.511, 1.511, 1.511, 1.51, 1.509, 1.508, 1.507, 1.506, 1.505, 1.505, 1.505, 1.506, 1.506, 1.506, 1.507, 1.507, 1.507, 1.506, 1.506, 1.505, 1.505, 1.505, 1.504, 1.504, 1.504, 1.504, 1.505, 1.505, 1.505, 1.505, 1.505, 1.505, 1.506, 1.506, 1.506, 1.506, 1.506, 1.506, 1.506, 1.505, 1.505, 1.505, 1.505, 1.505, 1.504, 1.504, 1.503, 1.503, 1.503, 1.503, 1.503, 1.503, 1.503, 1.503, 1.503, 1.502, 1.501, 1.5, 1.499, 1.499, 1.496, 1.496, 1.496, 1.496, 1.496, 1.496, 1.499, 1.499, 1.499, 1.499, 1.499, 1.496, 1.496, 1.496, 1.496, 1.496, 1.496, 1.496, 1.499, 1.496, 1.496, 1.499, 1.496, 1.496, 1.496, 1.495, 1.495, 1.495, 1.494, 1.494, 1.494, 1.494, 1.493, 1.493, 1.493, 1.493, 1.494, 1.494, 1.494, 1.495, 1.495, 1.5, 1.501, 1.502, 1.503, 1.504, 1.505, 1.505, 1.505, 1.504, 1.503, 1.502, 1.501, 1.5, 1.5, 1.496, 1.496, 1.496, 1.496, 1.495, 1.495, 1.495, 1.492, 1.492, 1.491, 1.49, 1.489, 1.488, 1.488, 1.488, 1.488, 1.489, 1.49, 1.49, 1.49, 1.489, 1.488, 1.487, 1.486, 1.485, 1.484, 1.484, 1.484, 1.485, 1.486, 1.487, 1.488, 1.488, 1.489, 1.488, 1.487, 1.486, 1.485, 1.481, 1.48, 1.476, 1.474, 1.473, 1.473, 1.472, 1.472, 1.472, 1.472, 1.472, 1.472, 1.472, 1.472, 1.473, 1.473, 1.474, 1.475, 1.476, 1.478, 1.478, 1.48, 1.481, 1.482, 1.483, 1.484, 1.484, 1.484, 1.484, 1.484, 1.484, 1.484, 1.484, 1.484, 1.484, 1.484, 1.484, 1.484, 1.484, 1.484, 1.484, 1.484, 1.484, 1.484, 1.483, 1.482, 1.481, 1.48, 1.48, 1.479, 1.478, 1.478, 1.478, 1.478, 1.478, 1.478, 1.478, 1.478, 1.478, 1.478, 1.477, 1.476, 1.475, 1.474, 1.474, 1.473, 1.472, 1.472, 1.472, 1.472, 1.473, 1.473, 1.474, 1.474, 1.474, 1.474, 1.473, 1.472, 1.472, 1.471, 1.47, 1.468, 1.468, 1.468, 1.468, 1.468, 1.468, 1.47, 1.47, 1.471, 1.471, 1.471, 1.472, 1.473, 1.474, 1.476, 1.476, 1.478, 1.478, 1.478, 1.477, 1.474, 1.473, 1.47, 1.468, 1.466, 1.464, 1.462, 1.462, 1.462, 1.462, 1.462, 1.462, 1.462, 1.462, 1.462, 1.464, 1.464, 1.464, 1.464, 1.464, 1.464, 1.464, 1.464, 1.464, 1.464, 1.466, 1.466, 1.468, 1.47, 1.47, 1.47, 1.468, 1.468, 1.466, 1.466, 1.466, 1.466, 1.466, 1.466, 1.468, 1.471, 1.471, 1.472, 1.471, 1.47, 1.47, 1.469, 1.466, 1.466, 4.385, 4.385, 4.385, 4.385, 4.385, 4.385, 4.385, 4.385, 4.385, 4.385, 4.385, 4.385, 4.385, 4.385
1.523, 1.524, 1.524, 1.524, 1.524, 1.524, 1.524, 1.524, 1.524, 1.524, 1.536, 1.536, 1.536, 1.536, 1.536, 1.535, 1.533, 1.527, 1.526, 1.524, 1.522, 1.52, 1.518, 1.517, 1.516, 1.516, 1.517, 1.518, 1.518, 1.519, 1.519, 1.519, 1.519, 1.519, 1.518, 1.517, 1.512, 1.511, 1.511, 1.511, 1.508, 1.508, 1.507, 1.507, 1.508, 1.509, 1.51, 1.511, 1.512, 1.517, 1.518, 1.518, 1.518, 1.517, 1.517, 1.517, 1.517, 1.512, 1.512, 1.513, 1.513, 1.517, 1.516, 1.52, 1.521, 1.522, 1.522, 1.52, 1.52, 1.516, 1.512, 1.511, 1.51, 1.509, 1.509, 1.509, 1.509, 1.509, 1.51, 1.511, 1.512, 1.513, 1.513, 1.513, 1.516, 1.516, 1.517, 1.518, 1.518, 1.518, 1.518, 1.518, 1.518, 1.517, 1.516, 1.516, 1.516, 1.516, 1.516, 1.516, 1.516, 1.516, 1.516, 1.516, 1.516, 1.513, 1.512, 1.511, 1.511, 1.511, 1.511, 1.511, 1.512, 1.512, 1.516, 1.516, 1.516, 1.516, 1.516, 1.512, 1.512, 1.511, 1.511, 1.511, 1.511, 1.511, 1.511, 1.511, 1.511, 1.511, 1.51, 1.51, 1.509, 1.508, 1.507, 1.506, 1.505, 1.505, 1.505, 1.505, 1.505, 1.506, 1.506, 1.506, 1.506, 1.505, 1.505, 1.505, 1.504, 1.504, 1.504, 1.503, 1.503, 1.504, 1.504, 1.505, 1.505, 1.505, 1.505, 1.506, 1.506, 1.507, 1.506, 1.506, 1.505, 1.505, 1.505, 1.505, 1.505, 1.505, 1.505, 1.505, 1.505, 1.504, 1.503, 1.503, 1.503, 1.503, 1.503, 1.503, 1.503, 1.503, 1.503, 1.502, 1.501, 1.5, 1.499, 1.496, 1.496, 1.496, 1.496, 1.496, 1.496, 1.496, 1.496, 1.499, 1.499, 1.496, 1.496, 1.496, 1.496, 1.496, 1.496, 1.496, 1.496, 1.499, 1.499, 1.499, 1.499, 1.499, 1.499, 1.499, 1.496, 1.496, 1.496, 1.495, 1.495, 1.495, 1.494, 1.494, 1.494, 1.494, 1.494, 1.494, 1.494, 1.494, 1.494, 1.494, 1.495, 1.495, 1.5, 1.501, 1.502, 1.503, 1.504, 1.504, 1.504, 1.504, 1.503, 1.502, 1.501, 1.5, 1.499, 1.496, 1.496, 1.496, 1.495, 1.494, 1.494, 1.493, 1.492, 1.492, 1.491, 1.49, 1.488, 1.488, 1.488, 1.488, 1.488, 1.488, 1.489, 1.489, 1.489, 1.489, 1.487, 1.486, 1.485, 1.484, 1.483, 1.483, 1.483, 1.484, 1.485, 1.486, 1.487, 1.487, 1.488, 1.488, 1.486, 1.485, 1.484, 1.48, 1.479, 1.475, 1.474, 1.473, 1.472, 1.472, 1.471, 1.471, 1.471, 1.472, 1.472, 1.472, 1.472, 1.472, 1.473, 1.474, 1.475, 1.476, 1.477, 1.477, 1.478, 1.479, 1.48, 1.481, 1.482, 1.482, 1.482, 1.482, 1.482, 1.482, 1.482, 1.483, 1.483, 1.483, 1.484, 1.484, 1.484, 1.484, 1.484, 1.484, 1.484, 1.484, 1.483, 1.482, 1.482, 1.481, 1.48, 1.48, 1.479, 1.478, 1.478, 1.478, 1.478, 1.478, 1.478, 1.478, 1.478, 1.478, 1.478, 1.477, 1.476, 1.475, 1.474, 1.474, 1.473, 1.472, 1.472, 1.472, 1.472, 1.472, 1.472, 1.472, 1.473, 1.473, 1.472, 1.472, 1.472, 1.471, 1.47, 1.468, 1.468, 1.468, 1.468, 1.468, 1.468, 1.468, 1.468, 1.47, 1.47, 1.47, 1.471, 1.472, 1.473, 1.474, 1.476, 1.477, 1.478, 1.479, 1.479, 1.478, 1.475, 1.474, 1.471, 1.468, 1.466, 1.464, 1.464, 1.462, 1.462, 1.462, 1.462, 1.462, 1.462, 1.462, 1.462, 1.464, 1.464, 1.464, 1.464, 1.464, 1.464, 1.462, 1.462, 1.464, 1.464, 1.466, 1.466, 1.468, 1.47, 1.47, 1.47, 1.47, 1.468, 1.466, 1.466, 1.466, 1.466, 1.466, 1.466, 1.468, 1.471, 1.471, 1.472, 1.472, 1.471, 1.47, 1.468, 1.466, 1.466, 1.464, 1.464, 1.464, 1.464, 1.464, 1.464, 4.385, 4.385, 4.385, 4.385, 4.385, 4.385, 4.385, 4.385
1.52, 1.52, 1.52, 1.524, 1.524, 1.524, 1.524, 1.524, 1.524, 1.535, 1.535, 1.535, 1.535, 1.536, 1.535, 1.535, 1.531, 1.531, 1.525, 1.524, 1.522, 1.52, 1.518, 1.517, 1.516, 1.516, 1.517, 1.518, 1.518, 1.519, 1.52, 1.52, 1.52, 1.519, 1.518, 1.517, 1.512, 1.511, 1.511, 1.511, 1.507, 1.507, 1.507, 1.507, 1.507, 1.508, 1.509, 1.511, 1.511, 1.512, 1.517, 1.517, 1.517, 1.517, 1.516, 1.512, 1.512, 1.512, 1.512, 1.512, 1.512, 1.516, 1.517, 1.518, 1.519, 1.52, 1.519, 1.518, 1.517, 1.516, 1.511, 1.51, 1.509, 1.509, 1.509, 1.509, 1.509, 1.509, 1.51, 1.511, 1.511, 1.512, 1.513, 1.513, 1.516, 1.516, 1.517, 1.518, 1.519, 1.519, 1.52, 1.519, 1.519, 1.518, 1.517, 1.517, 1.516, 1.516, 1.516, 1.516, 1.517, 1.517, 1.517, 1.516, 1.516, 1.513, 1.512, 1.512, 1.511, 1.511, 1.511, 1.511, 1.512, 1.513, 1.516, 1.516, 1.516, 1.516, 1.516, 1.512, 1.512, 1.511, 1.511, 1.511, 1.511, 1.511, 1.511, 1.511, 1.511, 1.511, 1.51, 1.509, 1.509, 1.507, 1.507, 1.506, 1.505, 1.505, 1.505, 1.505, 1.505, 1.505, 1.505, 1.505, 1.505, 1.505, 1.504, 1.504, 1.504, 1.503, 1.503, 1.503, 1.503, 1.503, 1.504, 1.505, 1.505, 1.505, 1.505, 1.506, 1.507, 1.506, 1.506, 1.505, 1.505, 1.505, 1.505, 1.505, 1.505, 1.505, 1.505, 1.505, 1.505, 1.504, 1.504, 1.503, 1.503, 1.503, 1.503, 1.504, 1.504, 1.504, 1.503, 1.502, 1.501, 1.5, 1.499, 1.496, 1.496, 1.496, 1.496, 1.495, 1.495, 1.495, 1.496, 1.496, 1.496, 1.496, 1.496, 1.496, 1.496, 1.496, 1.496, 1.496, 1.496, 1.499, 1.499, 1.499, 1.499, 1.499, 1.499, 1.499, 1.499, 1.496, 1.496, 1.496, 1.496, 1.495, 1.495, 1.495, 1.494, 1.494, 1.494, 1.494, 1.494, 1.494, 1.494, 1.494, 1.495, 1.495, 1.5, 1.501, 1.502, 1.503, 1.503, 1.503, 1.503, 1.503, 1.502, 1.501, 1.5, 1.5, 1.499, 1.496, 1.496, 1.495, 1.494, 1.494, 1.493, 1.492, 1.491, 1.491, 1.49, 1.489, 1.488, 1.487, 1.487, 1.486, 1.487, 1.487, 1.488, 1.488, 1.488, 1.487, 1.486, 1.485, 1.484, 1.483, 1.482, 1.482, 1.482, 1.483, 1.484, 1.485, 1.486, 1.487, 1.487, 1.487, 1.486, 1.484, 1.483, 1.48, 1.479, 1.475, 1.474, 1.473, 1.472, 1.472, 1.471, 1.471, 1.471, 1.472, 1.472, 1.472, 1.472, 1.472, 1.473, 1.473, 1.474, 1.475, 1.476, 1.476, 1.477, 1.478, 1.479, 1.48, 1.48, 1.48, 1.48, 1.481, 1.481, 1.482, 1.482, 1.482, 1.482, 1.482, 1.483, 1.483, 1.484, 1.484, 1.484, 1.484, 1.484, 1.484, 1.484, 1.483, 1.482, 1.481, 1.48, 1.48, 1.479, 1.478, 1.478, 1.478, 1.478, 1.478, 1.478, 1.478, 1.478, 1.478, 1.478, 1.478, 1.477, 1.475, 1.474, 1.474, 1.473, 1.472, 1.472, 1.472, 1.472, 1.472, 1.472, 1.472, 1.472, 1.472, 1.471, 1.471, 1.471, 1.468, 1.468, 1.468, 1.466, 1.466, 1.466, 1.468, 1.468, 1.468, 1.468, 1.468, 1.468, 1.468, 1.471, 1.472, 1.473, 1.474, 1.476, 1.478, 1.479, 1.48, 1.48, 1.48, 1.476, 1.475, 1.471, 1.471, 1.466, 1.464, 1.464, 1.462, 1.462, 1.462, 1.462, 1.462, 1.462, 1.462, 1.464, 1.464, 1.464, 1.464, 1.464, 1.464, 1.464, 1.462, 1.462, 1.462, 1.464, 1.466, 1.466, 1.468, 1.47, 1.47, 1.47, 1.47, 1.47, 1.468, 1.468, 1.468, 1.468, 1.468, 1.468, 1.47, 1.471, 1.472, 1.472, 1.472, 1.471, 1.47, 1.468, 1.466, 1.466, 1.464, 1.462, 1.462, 1.462, 1.462, 1.462, 1.462, 1.462, 1.46, 1.458, 1.456, 1.454, 1.454, 1.454
1.518, 1.516, 1.513, 1.512, 1.512, 1.512, 1.52, 1.52, 1.521, 1.526, 1.527, 1.534, 1.534, 1.535, 1.535, 1.535, 1.531, 1.527, 1.526, 1.524, 1.522, 1.52, 1.518, 1.517, 1.516, 1.516, 1.517, 1.518, 1.519, 1.52, 1.52, 1.521, 1.521, 1.52, 1.519, 1.516, 1.512, 1.511, 1.51, 1.51, 1.507, 1.507, 1.507, 1.507, 1.507, 1.508, 1.509, 1.51, 1.511, 1.512, 1.516, 1.516, 1.516, 1.513, 1.512, 1.512, 1.511, 1.511, 1.511, 1.511, 1.512, 1.512, 1.516, 1.517, 1.518, 1.519, 1.518, 1.517, 1.516, 1.511, 1.51, 1.509, 1.509, 1.508, 1.508, 1.509, 1.509, 1.509, 1.51, 1.511, 1.511, 1.512, 1.513, 1.513, 1.513, 1.517, 1.518, 1.518, 1.519, 1.52, 1.521, 1.52, 1.52, 1.519, 1.518, 1.518, 1.517, 1.517, 1.517, 1.517, 1.517, 1.517, 1.517, 1.516, 1.516, 1.513, 1.513, 1.512, 1.512, 1.511, 1.511, 1.512, 1.512, 1.516, 1.516, 1.516, 1.516, 1.516, 1.516, 1.512, 1.512, 1.511, 1.511, 1.511, 1.511, 1.511, 1.511, 1.511, 1.511, 1.51, 1.51, 1.509, 1.508, 1.507, 1.507, 1.506, 1.505, 1.505, 1.505, 1.505, 1.505, 1.505, 1.505, 1.505, 1.505, 1.505, 1.504, 1.503, 1.503, 1.503, 1.503, 1.503, 1.503, 1.503, 1.504, 1.505, 1.505, 1.505, 1.506, 1.506, 1.507, 1.506, 1.505, 1.505, 1.505, 1.505, 1.504, 1.504, 1.505, 1.505, 1.505, 1.505, 1.505, 1.505, 1.504, 1.504, 1.504, 1.504, 1.504, 1.504, 1.505, 1.504, 1.503, 1.503, 1.501, 1.5, 1.499, 1.496, 1.496, 1.496, 1.495, 1.495, 1.494, 1.495, 1.495, 1.495, 1.496, 1.496, 1.496, 1.496, 1.496, 1.496, 1.496, 1.496, 1.496, 1.499, 1.499, 1.499, 1.499, 1.499, 1.499, 1.499, 1.499, 1.499, 1.496, 1.496, 1.496, 1.496, 1.496, 1.495, 1.495, 1.495, 1.495, 1.494, 1.494, 1.494, 1.494, 1.494, 1.495, 1.496, 1.496, 1.5, 1.501, 1.502, 1.503, 1.503, 1.503, 1.502, 1.502, 1.501, 1.5, 1.499, 1.496, 1.496, 1.495, 1.495, 1.494, 1.493, 1.492, 1.491, 1.49, 1.49, 1.489, 1.488, 1.487, 1.486, 1.486, 1.486, 1.486, 1.486, 1.486, 1.487, 1.486, 1.486, 1.484, 1.484, 1.483, 1.482, 1.481, 1.481, 1.481, 1.482, 1.483, 1.484, 1.485, 1.486, 1.486, 1.486, 1.485, 1.484, 1.483, 1.479, 1.478, 1.476, 1.474, 1.473, 1.472, 1.472, 1.471, 1.471, 1.471, 1.472, 1.472, 1.472, 1.472, 1.472, 1.472, 1.473, 1.473, 1.474, 1.474, 1.475, 1.476, 1.477, 1.478, 1.478, 1.478, 1.479, 1.479, 1.479, 1.48, 1.48, 1.481, 1.481, 1.482, 1.482, 1.482, 1.482, 1.483, 1.483, 1.484, 1.484, 1.484, 1.484, 1.484, 1.483, 1.482, 1.481, 1.481, 1.48, 1.479, 1.479, 1.478, 1.478, 1.479, 1.479, 1.479, 1.479, 1.479, 1.479, 1.479, 1.478, 1.477, 1.476, 1.475, 1.474, 1.473, 1.472, 1.472, 1.472, 1.471, 1.471, 1.471, 1.471, 1.471, 1.471, 1.47, 1.468, 1.468, 1.468, 1.466, 1.466, 1.466, 1.466, 1.466, 1.466, 1.468, 1.468, 1.468, 1.468, 1.468, 1.468, 1.471, 1.472, 1.473, 1.474, 1.475, 1.479, 1.48, 1.481, 1.481, 1.481, 1.477, 1.476, 1.472, 1.471, 1.468, 1.466, 1.464, 1.464, 1.464, 1.464, 1.464, 1.464, 1.464, 1.464, 1.464, 1.464, 1.464, 1.464, 1.464, 1.464, 1.464, 1.462, 1.462, 1.462, 1.464, 1.466, 1.466, 1.468, 1.47, 1.47, 1.47, 1.47, 1.47, 1.47, 1.468, 1.468, 1.468, 1.468, 1.471, 1.471, 1.471, 1.472, 1.472, 1.472, 1.472, 1.471, 1.468, 1.466, 1.466, 1.464, 1.462, 1.462, 1.462, 1.462, 1.462, 1.46, 1.46, 1.458, 1.458, 1.456, 1.454, 1.454, 1.45
1.517, 1.517, 1.512, 1.512, 1.511, 1.511, 1.511, 1.516, 1.521, 1.525, 1.525, 1.532, 1.533, 1.534, 1.535, 1.534, 1.531, 1.527, 1.526, 1.524, 1.522, 1.52, 1.518, 1.517, 1.516, 1.516, 1.517, 1.518, 1.519, 1.52, 1.521, 1.522, 1.522, 1.521, 1.52, 1.516, 1.516, 1.511, 1.51, 1.509, 1.508, 1.507, 1.507, 1.507, 1.507, 1.508, 1.509, 1.51, 1.511, 1.512, 1.512, 1.513, 1.513, 1.512, 1.512, 1.511, 1.511, 1.511, 1.511, 1.511, 1.512, 1.512, 1.516, 1.517, 1.518, 1.518, 1.517, 1.517, 1.512, 1.511, 1.51, 1.509, 1.508, 1.508, 1.508, 1.509, 1.509, 1.509, 1.51, 1.511, 1.511, 1.512, 1.513, 1.513, 1.513, 1.517, 1.518, 1.518, 1.519, 1.52, 1.521, 1.521, 1.521, 1.52, 1.519, 1.519, 1.518, 1.518, 1.517, 1.517, 1.517, 1.517, 1.517, 1.516, 1.513, 1.513, 1.513, 1.513, 1.512, 1.512, 1.512, 1.512, 1.513, 1.516, 1.516, 1.516, 1.516, 1.516, 1.516, 1.512, 1.512, 1.511, 1.511, 1.511, 1.511, 1.511, 1.511, 1.511, 1.51, 1.51, 1.509, 1.508, 1.508, 1.507, 1.506, 1.506, 1.505, 1.505, 1.505, 1.505, 1.505, 1.505, 1.505, 1.505, 1.505, 1.504, 1.504, 1.503, 1.503, 1.503, 1.503, 1.503, 1.503, 1.503, 1.504, 1.505, 1.505, 1.505, 1.506, 1.507, 1.507, 1.506, 1.505, 1.504, 1.504, 1.504, 1.504, 1.504, 1.504, 1.504, 1.505, 1.505, 1.505, 1.505, 1.505, 1.505, 1.505, 1.505, 1.505, 1.505, 1.505, 1.504, 1.503, 1.503, 1.501, 1.5, 1.5, 1.496, 1.496, 1.495, 1.495, 1.494, 1.494, 1.494, 1.494, 1.495, 1.495, 1.495, 1.495, 1.496, 1.496, 1.496, 1.496, 1.496, 1.499, 1.499, 1.499, 1.5, 1.5, 1.5, 1.499, 1.499, 1.499, 1.499, 1.499, 1.499, 1.499, 1.499, 1.499, 1.499, 1.496, 1.496, 1.495, 1.495, 1.494, 1.494, 1.494, 1.494, 1.495, 1.496, 1.496, 1.5, 1.501, 1.501, 1.502, 1.502, 1.502, 1.502, 1.501, 1.5, 1.5, 1.499, 1.496, 1.495, 1.494, 1.494, 1.493, 1.492, 1.491, 1.49, 1.489, 1.488, 1.488, 1.487, 1.486, 1.485, 1.485, 1.485, 1.485, 1.485, 1.485, 1.486, 1.485, 1.484, 1.483, 1.483, 1.482, 1.481, 1.48, 1.48, 1.481, 1.482, 1.483, 1.484, 1.485, 1.486, 1.486, 1.485, 1.484, 1.483, 1.482, 1.48, 1.478, 1.476, 1.474, 1.473, 1.472, 1.472, 1.472, 1.472, 1.472, 1.472, 1.472, 1.472, 1.472, 1.472, 1.472, 1.472, 1.473, 1.473, 1.474, 1.474, 1.475, 1.476, 1.476, 1.477, 1.478, 1.478, 1.478, 1.478, 1.479, 1.479, 1.48, 1.48, 1.481, 1.481, 1.482, 1.482, 1.482, 1.483, 1.483, 1.484, 1.484, 1.484, 1.484, 1.483, 1.482, 1.482, 1.481, 1.48, 1.48, 1.479, 1.479, 1.479, 1.479, 1.48, 1.48, 1.48, 1.48, 1.48, 1.48, 1.479, 1.478, 1.477, 1.476, 1.475, 1.474, 1.473, 1.472, 1.471, 1.471, 1.47, 1.47, 1.47, 1.47, 1.47, 1.468, 1.468, 1.466, 1.466, 1.466, 1.466, 1.466, 1.466, 1.466, 1.466, 1.468, 1.468, 1.468, 1.468, 1.468, 1.471, 1.471, 1.472, 1.473, 1.475, 1.476, 1.48, 1.481, 1.482, 1.482, 1.482, 1.478, 1.477, 1.473, 1.472, 1.468, 1.466, 1.466, 1.466, 1.464, 1.464, 1.464, 1.464, 1.464, 1.464, 1.464, 1.464, 1.464, 1.464, 1.464, 1.464, 1.464, 1.464, 1.464, 1.464, 1.464, 1.466, 1.468, 1.47, 1.47, 1.47, 1.471, 1.471, 1.471, 1.471, 1.471, 1.468, 1.468, 1.471, 1.471, 1.472, 1.472, 1.472, 1.473, 1.473, 1.472, 1.471, 1.468, 1.466, 1.466, 1.464, 1.464, 1.462, 1.462, 1.462, 1.462, 1.46, 1.46, 1.458, 1.458, 1.456, 1.454, 1.452, 1.45
1.512, 1.512, 1.511, 1.511, 1.511, 1.511, 1.511, 1.516, 1.521, 1.522, 1.523, 1.527, 1.532, 1.533, 1.534, 1.534, 1.531, 1.527, 1.526, 1.524, 1.522, 1.52, 1.518, 1.517, 1.516, 1.516, 1.517, 1.518, 1.52, 1.521, 1.522, 1.523, 1.523, 1.522, 1.521, 1.517, 1.516, 1.511, 1.51, 1.51, 1.507, 1.507, 1.507, 1.507, 1.507, 1.507, 1.508, 1.509, 1.51, 1.511, 1.512, 1.512, 1.512, 1.512, 1.511, 1.511, 1.511, 1.511, 1.511, 1.511, 1.512, 1.513, 1.516, 1.517, 1.517, 1.517, 1.516, 1.512, 1.511, 1.51, 1.509, 1.508, 1.508, 1.507, 1.508, 1.509, 1.509, 1.509, 1.51, 1.511, 1.511, 1.512, 1.513, 1.513, 1.513, 1.513, 1.518, 1.518, 1.519, 1.52, 1.521, 1.522, 1.521, 1.52, 1.52, 1.519, 1.518, 1.518, 1.517, 1.517, 1.517, 1.517, 1.513, 1.513, 1.513, 1.513, 1.513, 1.513, 1.513, 1.513, 1.513, 1.513, 1.516, 1.516, 1.516, 1.516, 1.516, 1.516, 1.516, 1.512, 1.512, 1.511, 1.511, 1.511, 1.511, 1.511, 1.511, 1.51, 1.51, 1.509, 1.508, 1.508, 1.507, 1.507, 1.506, 1.505, 1.505, 1.505, 1.505, 1.505, 1.505, 1.505, 1.505, 1.505, 1.505, 1.504, 1.503, 1.503, 1.503, 1.503, 1.503, 1.503, 1.503, 1.503, 1.504, 1.505, 1.506, 1.506, 1.506, 1.507, 1.506, 1.506, 1.505, 1.504, 1.503, 1.503, 1.503, 1.503, 1.503, 1.504, 1.505, 1.505, 1.505, 1.505, 1.505, 1.505, 1.505, 1.505, 1.505, 1.505, 1.505, 1.505, 1.503, 1.503, 1.501, 1.501, 1.5, 1.496, 1.495, 1.495, 1.494, 1.494, 1.494, 1.494, 1.494, 1.494, 1.494, 1.494, 1.495, 1.495, 1.496, 1.496, 1.496, 1.496, 1.499, 1.499, 1.5, 1.5, 1.501, 1.5, 1.5, 1.499, 1.499, 1.499, 1.499, 1.499, 1.499, 1.499, 1.499, 1.499, 1.499, 1.499, 1.496, 1.495, 1.495, 1.495, 1.494, 1.495, 1.495, 1.496, 1.496, 1.5, 1.5, 1.501, 1.501, 1.501, 1.501, 1.501, 1.5, 1.5, 1.499, 1.496, 1.495, 1.494, 1.494, 1.493, 1.492, 1.491, 1.49, 1.489, 1.488, 1.487, 1.486, 1.485, 1.485, 1.484, 1.484, 1.484, 1.484, 1.484, 1.485, 1.485, 1.484, 1.484, 1.483, 1.482, 1.481, 1.481, 1.48, 1.48, 1.48, 1.481, 1.482, 1.483, 1.484, 1.485, 1.486, 1.485, 1.484, 1.483, 1.482, 1.48, 1.478, 1.476, 1.475, 1.474, 1.473, 1.472, 1.472, 1.472, 1.472, 1.472, 1.472, 1.472, 1.472, 1.472, 1.472, 1.472, 1.472, 1.472, 1.473, 1.473, 1.474, 1.474, 1.475, 1.476, 1.476, 1.476, 1.477, 1.477, 1.478, 1.478, 1.479, 1.48, 1.48, 1.481, 1.481, 1.482, 1.482, 1.482, 1.483, 1.483, 1.484, 1.484, 1.484, 1.483, 1.483, 1.482, 1.482, 1.481, 1.48, 1.48, 1.48, 1.48, 1.48, 1.48, 1.481, 1.481, 1.481, 1.481, 1.48, 1.48, 1.478, 1.477, 1.476, 1.475, 1.474, 1.473, 1.472, 1.471, 1.47, 1.47, 1.468, 1.468, 1.468, 1.468, 1.468, 1.466, 1.466, 1.466, 1.466, 1.466, 1.466, 1.466, 1.466, 1.466, 1.468, 1.468, 1.468, 1.468, 1.468, 1.471, 1.472, 1.473, 1.474, 1.476, 1.477, 1.481, 1.482, 1.483, 1.483, 1.483, 1.48, 1.478, 1.474, 1.472, 1.471, 1.468, 1.466, 1.466, 1.466, 1.464, 1.464, 1.464, 1.466, 1.466, 1.466, 1.466, 1.464, 1.464, 1.462, 1.462, 1.462, 1.462, 1.464, 1.464, 1.464, 1.466, 1.468, 1.47, 1.471, 1.471, 1.471, 1.471, 1.471, 1.472, 1.472, 1.472, 1.472, 1.472, 1.472, 1.473, 1.473, 1.474, 1.473, 1.473, 1.472, 1.471, 1.468, 1.466, 1.466, 1.464, 1.464, 1.462, 1.462, 1.462, 1.462, 1.462, 1.46, 1.458, 1.458, 1.456, 1.454, 1.452, 1.45
1.511, 1.511, 1.51, 1.51, 1.509, 1.51, 1.512, 1.516, 1.516, 1.521, 1.521, 1.526, 1.527, 1.532, 1.533, 1.532, 1.531, 1.527, 1.526, 1.524, 1.522, 1.52, 1.518, 1.517, 1.516, 1.516, 1.516, 1.519, 1.52, 1.522, 1.523, 1.524, 1.524, 1.522, 1.521, 1.517, 1.517, 1.511, 1.51, 1.51, 1.507, 1.507, 1.507, 1.507, 1.507, 1.507, 1.508, 1.509, 1.51, 1.511, 1.511, 1.511, 1.511, 1.511, 1.511, 1.511, 1.511, 1.511, 1.511, 1.512, 1.512, 1.516, 1.516, 1.517, 1.517, 1.517, 1.516, 1.512, 1.511, 1.51, 1.509, 1.508, 1.507, 1.507, 1.508, 1.509, 1.509, 1.509, 1.51, 1.511, 1.511, 1.512, 1.513, 1.513, 1.513, 1.513, 1.517, 1.518, 1.519, 1.52, 1.521, 1.522, 1.522, 1.521, 1.52, 1.52, 1.519, 1.518, 1.517, 1.516, 1.516, 1.513, 1.513, 1.513, 1.513, 1.512, 1.512, 1.513, 1.513, 1.513, 1.513, 1.513, 1.517, 1.517, 1.517, 1.517, 1.517, 1.516, 1.516, 1.512, 1.511, 1.511, 1.511, 1.511, 1.511, 1.51, 1.51, 1.51, 1.509, 1.508, 1.508, 1.507, 1.507, 1.507, 1.506, 1.505, 1.505, 1.505, 1.505, 1.505, 1.505, 1.505, 1.505, 1.505, 1.505, 1.504, 1.503, 1.503, 1.503, 1.503, 1.503, 1.503, 1.503, 1.504, 1.505, 1.505, 1.506, 1.507, 1.507, 1.507, 1.506, 1.505, 1.504, 1.503, 1.503, 1.503, 1.503, 1.503, 1.503, 1.504, 1.505, 1.505, 1.506, 1.506, 1.506, 1.506, 1.506, 1.506, 1.506, 1.506, 1.506, 1.505, 1.504, 1.503, 1.502, 1.501, 1.5, 1.496, 1.495, 1.494, 1.494, 1.494, 1.494, 1.494, 1.494, 1.494, 1.494, 1.494, 1.494, 1.495, 1.496, 1.496, 1.496, 1.499, 1.499, 1.5, 1.5, 1.501, 1.501, 1.501, 1.5, 1.499, 1.499, 1.499, 1.499, 1.499, 1.499, 1.5, 1.5, 1.5, 1.5, 1.5, 1.499, 1.496, 1.496, 1.495, 1.495, 1.495, 1.496, 1.496, 1.496, 1.496, 1.5, 1.501, 1.501, 1.501, 1.501, 1.5, 1.5, 1.499, 1.499, 1.496, 1.495, 1.494, 1.493, 1.492, 1.491, 1.49, 1.489, 1.488, 1.487, 1.486, 1.485, 1.484, 1.483, 1.483, 1.483, 1.483, 1.483, 1.484, 1.484, 1.484, 1.484, 1.483, 1.482, 1.482, 1.481, 1.48, 1.48, 1.48, 1.48, 1.481, 1.482, 1.483, 1.484, 1.485, 1.485, 1.485, 1.484, 1.482, 1.481, 1.48, 1.478, 1.477, 1.475, 1.474, 1.473, 1.473, 1.472, 1.472, 1.472, 1.472, 1.472, 1.472, 1.471, 1.471, 1.471, 1.471, 1.471, 1.472, 1.472, 1.472, 1.473, 1.473, 1.474, 1.475, 1.475, 1.476, 1.476, 1.477, 1.478, 1.478, 1.478, 1.479, 1.48, 1.48, 1.481, 1.482, 1.482, 1.482, 1.482, 1.483, 1.483, 1.483, 1.483, 1.483, 1.483, 1.482, 1.482, 1.482, 1.481, 1.481, 1.48, 1.48, 1.481, 1.481, 1.482, 1.482, 1.482, 1.482, 1.481, 1.48, 1.479, 1.478, 1.477, 1.476, 1.474, 1.473, 1.472, 1.471, 1.47, 1.468, 1.468, 1.468, 1.468, 1.468, 1.466, 1.466, 1.466, 1.466, 1.466, 1.466, 1.466, 1.466, 1.466, 1.466, 1.466, 1.466, 1.468, 1.468, 1.468, 1.471, 1.472, 1.474, 1.475, 1.477, 1.478, 1.482, 1.483, 1.484, 1.484, 1.484, 1.48, 1.478, 1.475, 1.472, 1.47, 1.469, 1.468, 1.466, 1.466, 1.466, 1.466, 1.466, 1.466, 1.466, 1.466, 1.466, 1.464, 1.462, 1.462, 1.462, 1.462, 1.462, 1.464, 1.464, 1.464, 1.466, 1.468, 1.471, 1.471, 1.472, 1.472, 1.472, 1.472, 1.472, 1.472, 1.472, 1.472, 1.472, 1.473, 1.474, 1.474, 1.474, 1.474, 1.474, 1.472, 1.471, 1.468, 1.466, 1.466, 1.464, 1.464, 1.462, 1.462, 1.462, 1.462, 1.462, 1.46, 1.458, 1.458, 1.456, 1.454, 1.454, 1.452
1.509, 1.509, 1.509, 1.509, 1.509, 1.509, 1.511, 1.512, 1.517, 1.518, 1.519, 1.525, 1.526, 1.527, 1.532, 1.531, 1.531, 1.527, 1.526, 1.524, 1.522, 1.52, 1.518, 1.517, 1.516, 1.516, 1.516, 1.52, 1.521, 1.522, 1.524, 1.525, 1.525, 1.523, 1.522, 1.517, 1.517, 1.511, 1.51, 1.509, 1.507, 1.507, 1.507, 1.507, 1.507, 1.507, 1.508, 1.509, 1.51, 1.511, 1.511, 1.511, 1.511, 1.511, 1.511, 1.511, 1.511, 1.511, 1.511, 1.512, 1.512, 1.516, 1.516, 1.517, 1.517, 1.517, 1.512, 1.512, 1.511, 1.509, 1.508, 1.507, 1.507, 1.507, 1.508, 1.509, 1.509, 1.509, 1.51, 1.511, 1.511, 1.512, 1.513, 1.513, 1.513, 1.513, 1.517, 1.518, 1.518, 1.52, 1.521, 1.522, 1.522, 1.521, 1.52, 1.52, 1.519, 1.518, 1.517, 1.516, 1.513, 1.513, 1.513, 1.512, 1.512, 1.512, 1.512, 1.512, 1.512, 1.513, 1.513, 1.517, 1.517, 1.518, 1.518, 1.518, 1.517, 1.516, 1.516, 1.512, 1.511, 1.511, 1.511, 1.511, 1.51, 1.51, 1.509, 1.509, 1.508, 1.508, 1.507, 1.507, 1.507, 1.506, 1.506, 1.505, 1.505, 1.505, 1.505, 1.505, 1.505, 1.505, 1.505, 1.505, 1.505, 1.504, 1.503, 1.503, 1.503, 1.503, 1.503, 1.503, 1.503, 1.504, 1.505, 1.505, 1.506, 1.507, 1.507, 1.507, 1.506, 1.505, 1.504, 1.503, 1.502, 1.502, 1.502, 1.502, 1.503, 1.503, 1.505, 1.505, 1.506, 1.507, 1.507, 1.507, 1.507, 1.507, 1.507, 1.507, 1.506, 1.505, 1.504, 1.503, 1.502, 1.501, 1.5, 1.495, 1.495, 1.494, 1.494, 1.494, 1.494, 1.494, 1.494, 1.494, 1.494, 1.494, 1.494, 1.495, 1.495, 1.496, 1.496, 1.499, 1.5, 1.5, 1.501, 1.501, 1.501, 1.501, 1.5, 1.5, 1.5, 1.5, 1.5, 1.5, 1.5, 1.501, 1.501, 1.501, 1.501, 1.5, 1.5, 1.499, 1.496, 1.496, 1.496, 1.496, 1.496, 1.496, 1.496, 1.496, 1.5, 1.5, 1.5, 1.5, 1.5, 1.5, 1.499, 1.499, 1.496, 1.495, 1.494, 1.493, 1.492, 1.491, 1.49, 1.489, 1.488, 1.487, 1.486, 1.485, 1.484, 1.483, 1.482, 1.482, 1.482, 1.482, 1.482, 1.483, 1.483, 1.484, 1.484, 1.483, 1.482, 1.482, 1.481, 1.48, 1.48, 1.48, 1.48, 1.481, 1.482, 1.482, 1.484, 1.485, 1.485, 1.484, 1.484, 1.482, 1.482, 1.48, 1.479, 1.477, 1.476, 1.475, 1.474, 1.474, 1.473, 1.472, 1.472, 1.472, 1.472, 1.472, 1.471, 1.47, 1.47, 1.47, 1.471, 1.471, 1.471, 1.472, 1.472, 1.472, 1.473, 1.474, 1.474, 1.475, 1.475, 1.476, 1.477, 1.477, 1.478, 1.478, 1.479, 1.48, 1.48, 1.481, 1.482, 1.482, 1.482, 1.482, 1.482, 1.483, 1.483, 1.483, 1.482, 1.482, 1.482, 1.482, 1.482, 1.482, 1.481, 1.481, 1.482, 1.482, 1.482, 1.482, 1.483, 1.482, 1.482, 1.481, 1.48, 1.478, 1.477, 1.476, 1.474, 1.472, 1.471, 1.468, 1.468, 1.468, 1.466, 1.466, 1.466, 1.466, 1.466, 1.466, 1.464, 1.464, 1.464, 1.464, 1.464, 1.464, 1.466, 1.466, 1.466, 1.466, 1.468, 1.468, 1.468, 1.472, 1.472, 1.475, 1.476, 1.478, 1.479, 1.483, 1.484, 1.484, 1.484, 1.484, 1.481, 1.478, 1.476, 1.473, 1.47, 1.469, 1.469, 1.468, 1.466, 1.466, 1.466, 1.466, 1.466, 1.466, 1.466, 1.466, 1.464, 1.462, 1.462, 1.462, 1.462, 1.462, 1.464, 1.464, 1.464, 1.468, 1.468, 1.471, 1.472, 1.472, 1.472, 1.472, 1.472, 1.472, 1.472, 1.472, 1.472, 1.473, 1.474, 1.474, 1.475, 1.475, 1.475, 1.474, 1.473, 1.472, 1.468, 1.468, 1.466, 1.466, 1.464, 1.464, 1.462, 1.462, 1.462, 1.462, 1.46, 1.46, 1.458, 1.456, 1.456, 1.454, 1.452
1.508, 1.508, 1.508, 1.508, 1.508, 1.509, 1.51, 1.511, 1.512, 1.517, 1.518, 1.519, 1.525, 1.526, 1.527, 1.531, 1.531, 1.527, 1.526, 1.524, 1.522, 1.52, 1.518, 1.517, 1.517, 1.517, 1.517, 1.52, 1.522, 1.523, 1.525, 1.525, 1.525, 1.524, 1.523, 1.517, 1.517, 1.51, 1.509, 1.509, 1.508, 1.507, 1.507, 1.507, 1.507, 1.507, 1.508, 1.509, 1.51, 1.511, 1.511, 1.511, 1.511, 1.511, 1.511, 1.511, 1.511, 1.511, 1.512, 1.512, 1.513, 1.516, 1.517, 1.517, 1.517, 1.517, 1.512, 1.511, 1.511, 1.509, 1.508, 1.507, 1.507, 1.507, 1.508, 1.509, 1.509, 1.509, 1.51, 1.511, 1.511, 1.512, 1.513, 1.513, 1.513, 1.513, 1.517, 1.517, 1.518, 1.519, 1.52, 1.521, 1.521, 1.521, 1.52, 1.52, 1.519, 1.518, 1.517, 1.513, 1.513, 1.513, 1.512, 1.511, 1.511, 1.511, 1.511, 1.511, 1.512, 1.513, 1.513, 1.517, 1.517, 1.518, 1.518, 1.518, 1.517, 1.516, 1.513, 1.512, 1.511, 1.511, 1.511, 1.51, 1.51, 1.509, 1.508, 1.508, 1.508, 1.507, 1.507, 1.507, 1.507, 1.506, 1.506, 1.505, 1.505, 1.505, 1.505, 1.505, 1.505, 1.505, 1.505, 1.505, 1.504, 1.504, 1.503, 1.503, 1.503, 1.503, 1.503, 1.503, 1.503, 1.504, 1.505, 1.505, 1.506, 1.507, 1.507, 1.507, 1.506, 1.505, 1.504, 1.503, 1.502, 1.501, 1.501, 1.501, 1.502, 1.503, 1.505, 1.505, 1.506, 1.507, 1.507, 1.507, 1.507, 1.507, 1.507, 1.507, 1.507, 1.506, 1.505, 1.503, 1.502, 1.501, 1.5, 1.496, 1.495, 1.494, 1.494, 1.494, 1.494, 1.494, 1.494, 1.494, 1.494, 1.494, 1.494, 1.495, 1.496, 1.496, 1.499, 1.5, 1.501, 1.501, 1.501, 1.501, 1.501, 1.501, 1.501, 1.501, 1.501, 1.5, 1.501, 1.501, 1.501, 1.501, 1.501, 1.502, 1.501, 1.501, 1.5, 1.5, 1.496, 1.496, 1.496, 1.496, 1.496, 1.496, 1.496, 1.496, 1.499, 1.499, 1.499, 1.499, 1.499, 1.499, 1.499, 1.496, 1.495, 1.494, 1.493, 1.492, 1.491, 1.49, 1.489, 1.488, 1.487, 1.486, 1.485, 1.484, 1.483, 1.482, 1.481, 1.481, 1.481, 1.481, 1.482, 1.482, 1.483, 1.483, 1.483, 1.483, 1.482, 1.482, 1.481, 1.48, 1.48, 1.48, 1.48, 1.481, 1.482, 1.482, 1.483, 1.484, 1.484, 1.484, 1.483, 1.482, 1.482, 1.48, 1.479, 1.478, 1.477, 1.476, 1.475, 1.474, 1.474, 1.473, 1.472, 1.472, 1.472, 1.471, 1.47, 1.47, 1.47, 1.47, 1.47, 1.47, 1.471, 1.471, 1.471, 1.471, 1.472, 1.473, 1.473, 1.474, 1.474, 1.475, 1.476, 1.476, 1.477, 1.478, 1.478, 1.479, 1.48, 1.481, 1.481, 1.482, 1.482, 1.482, 1.482, 1.482, 1.482, 1.482, 1.482, 1.482, 1.482, 1.482, 1.482, 1.482, 1.482, 1.482, 1.482, 1.482, 1.483, 1.483, 1.483, 1.483, 1.482, 1.482, 1.48, 1.479, 1.478, 1.476, 1.474, 1.472, 1.471, 1.468, 1.468, 1.466, 1.466, 1.466, 1.466, 1.466, 1.464, 1.464, 1.464, 1.464, 1.464, 1.464, 1.464, 1.464, 1.464, 1.466, 1.466, 1.468, 1.468, 1.468, 1.471, 1.472, 1.472, 1.476, 1.477, 1.478, 1.48, 1.484, 1.484, 1.485, 1.484, 1.483, 1.482, 1.478, 1.476, 1.474, 1.471, 1.47, 1.469, 1.468, 1.468, 1.466, 1.466, 1.466, 1.466, 1.466, 1.466, 1.466, 1.464, 1.464, 1.462, 1.462, 1.462, 1.462, 1.464, 1.464, 1.466, 1.469, 1.47, 1.471, 1.472, 1.472, 1.472, 1.472, 1.472, 1.473, 1.473, 1.473, 1.473, 1.474, 1.474, 1.475, 1.476, 1.476, 1.475, 1.474, 1.473, 1.472, 1.471, 1.468, 1.466, 1.466, 1.464, 1.464, 1.462, 1.462, 1.462, 1.462, 1.46, 1.46, 1.46, 1.456, 1.456, 1.454, 1.452
1.507, 1.507, 1.507, 1.507, 1.507, 1.508, 1.509, 1.51, 1.511, 1.512, 1.517, 1.519, 1.522, 1.525, 1.526, 1.527, 1.528, 1.527, 1.526, 1.525, 1.522, 1.52, 1.519, 1.518, 1.518, 1.518, 1.519, 1.52, 1.523, 1.524, 1.525, 1.526, 1.525, 1.524, 1.523, 1.517, 1.517, 1.51, 1.51, 1.509, 1.508, 1.507, 1.507, 1.507, 1.507, 1.507, 1.508, 1.509, 1.51, 1.511, 1.511, 1.511, 1.511, 1.511, 1.511, 1.511, 1.511, 1.512, 1.512, 1.513, 1.516, 1.517, 1.518, 1.518, 1.518, 1.517, 1.512, 1.511, 1.51, 1.509, 1.508, 1.507, 1.507, 1.507, 1.508, 1.509, 1.509, 1.509, 1.51, 1.511, 1.511, 1.512, 1.512, 1.513, 1.513, 1.513, 1.516, 1.517, 1.518, 1.518, 1.519, 1.52, 1.52, 1.52, 1.52, 1.52, 1.519, 1.518, 1.517, 1.513, 1.513, 1.512, 1.511, 1.511, 1.51, 1.51, 1.51, 1.511, 1.512, 1.513, 1.513, 1.517, 1.518, 1.518, 1.518, 1.518, 1.517, 1.516, 1.513, 1.512, 1.511, 1.511, 1.51, 1.51, 1.509, 1.508, 1.508, 1.507, 1.507, 1.507, 1.507, 1.507, 1.507, 1.506, 1.505, 1.505, 1.505, 1.505, 1.505, 1.505, 1.505, 1.505, 1.505, 1.505, 1.505, 1.504, 1.503, 1.503, 1.503, 1.503, 1.503, 1.503, 1.503, 1.504, 1.505, 1.506, 1.507, 1.507, 1.507, 1.507, 1.506, 1.505, 1.503, 1.503, 1.502, 1.501, 1.501, 1.501, 1.502, 1.503, 1.504, 1.505, 1.506, 1.507, 1.507, 1.507, 1.507, 1.507, 1.507, 1.507, 1.507, 1.506, 1.505, 1.504, 1.503, 1.501, 1.5, 1.496, 1.495, 1.495, 1.494, 1.494, 1.494, 1.494, 1.494, 1.494, 1.494, 1.494, 1.494, 1.495, 1.496, 1.496, 1.5, 1.501, 1.501, 1.502, 1.502, 1.502, 1.501, 1.501, 1.501, 1.501, 1.501, 1.501, 1.501, 1.501, 1.501, 1.502, 1.502, 1.502, 1.502, 1.501, 1.501, 1.5, 1.499, 1.496, 1.496, 1.496, 1.496, 1.496, 1.496, 1.496, 1.496, 1.499, 1.499, 1.499, 1.499, 1.496, 1.495, 1.495, 1.494, 1.493, 1.492, 1.491, 1.49, 1.489, 1.488, 1.487, 1.486, 1.485, 1.484, 1.483, 1.482, 1.481, 1.48, 1.48, 1.48, 1.481, 1.482, 1.482, 1.482, 1.483, 1.483, 1.483, 1.482, 1.482, 1.481, 1.481, 1.481, 1.481, 1.481, 1.481, 1.482, 1.482, 1.483, 1.483, 1.484, 1.484, 1.483, 1.482, 1.482, 1.48, 1.48, 1.478, 1.477, 1.476, 1.476, 1.475, 1.474, 1.473, 1.472, 1.472, 1.471, 1.471, 1.47, 1.47, 1.47, 1.47, 1.47, 1.47, 1.47, 1.47, 1.47, 1.47, 1.471, 1.472, 1.472, 1.473, 1.473, 1.474, 1.475, 1.476, 1.476, 1.477, 1.478, 1.479, 1.479, 1.48, 1.48, 1.481, 1.481, 1.482, 1.482, 1.482, 1.482, 1.482, 1.482, 1.482, 1.482, 1.481, 1.481, 1.482, 1.482, 1.482, 1.482, 1.482, 1.483, 1.484, 1.484, 1.484, 1.483, 1.482, 1.481, 1.48, 1.478, 1.477, 1.473, 1.472, 1.471, 1.468, 1.468, 1.466, 1.466, 1.466, 1.464, 1.464, 1.464, 1.464, 1.464, 1.464, 1.464, 1.464, 1.464, 1.464, 1.464, 1.466, 1.468, 1.468, 1.47, 1.471, 1.471, 1.472, 1.473, 1.477, 1.478, 1.479, 1.482, 1.484, 1.484, 1.484, 1.484, 1.483, 1.482, 1.478, 1.475, 1.474, 1.472, 1.47, 1.47, 1.469, 1.468, 1.468, 1.468, 1.466, 1.466, 1.466, 1.466, 1.466, 1.464, 1.464, 1.462, 1.462, 1.464, 1.464, 1.464, 1.464, 1.466, 1.469, 1.47, 1.471, 1.472, 1.472, 1.472, 1.472, 1.473, 1.473, 1.473, 1.474, 1.474, 1.474, 1.475, 1.476, 1.476, 1.476, 1.475, 1.475, 1.474, 1.473, 1.47, 1.468, 1.468, 1.466, 1.466, 1.464, 1.464, 1.462, 1.462, 1.462, 1.46, 1.46, 1.46, 1.458, 1.456, 1.456, 1.454
1.507, 1.507, 1.507, 1.507, 1.507, 1.508, 1.509, 1.51, 1.511, 1.512, 1.516, 1.519, 1.52, 1.524, 1.525, 1.526, 1.527, 1.527, 1.526, 1.525, 1.522, 1.52, 1.52, 1.519, 1.519, 1.519, 1.52, 1.52, 1.524, 1.525, 1.526, 1.527, 1.526, 1.525, 1.522, 1.517, 1.517, 1.511, 1.51, 1.51, 1.507, 1.507, 1.507, 1.507, 1.507, 1.508, 1.509, 1.51, 1.511, 1.511, 1.511, 1.511, 1.511, 1.511, 1.511, 1.511, 1.512, 1.512, 1.513, 1.516, 1.517, 1.518, 1.519, 1.519, 1.519, 1.516, 1.512, 1.511, 1.51, 1.509, 1.508, 1.507, 1.507, 1.507, 1.508, 1.509, 1.509, 1.509, 1.51, 1.511, 1.511, 1.512, 1.512, 1.513, 1.513, 1.513, 1.513, 1.516, 1.517, 1.518, 1.518, 1.519, 1.519, 1.519, 1.519, 1.519, 1.518, 1.517, 1.517, 1.513, 1.512, 1.512, 1.511, 1.51, 1.509, 1.509, 1.51, 1.511, 1.512, 1.512, 1.517, 1.517, 1.518, 1.518, 1.518, 1.518, 1.517, 1.516, 1.512, 1.512, 1.511, 1.511, 1.51, 1.509, 1.509, 1.508, 1.507, 1.507, 1.507, 1.507, 1.507, 1.506, 1.506, 1.506, 1.505, 1.505, 1.505, 1.505, 1.505, 1.505, 1.505, 1.505, 1.505, 1.505, 1.505, 1.504, 1.503, 1.503, 1.503, 1.503, 1.503, 1.503, 1.503, 1.504, 1.505, 1.506, 1.507, 1.507, 1.507, 1.507, 1.506, 1.505, 1.503, 1.502, 1.501, 1.501, 1.501, 1.501, 1.502, 1.503, 1.504, 1.505, 1.506, 1.507, 1.508, 1.508, 1.508, 1.508, 1.508, 1.507, 1.507, 1.506, 1.505, 1.504, 1.503, 1.501, 1.5, 1.496, 1.496, 1.495, 1.494, 1.494, 1.494, 1.494, 1.494, 1.494, 1.494, 1.494, 1.495, 1.495, 1.496, 1.5, 1.5, 1.501, 1.502, 1.503, 1.503, 1.503, 1.502, 1.502, 1.501, 1.501, 1.501, 1.501, 1.501, 1.501, 1.501, 1.502, 1.503, 1.503, 1.502, 1.502, 1.501, 1.501, 1.5, 1.499, 1.496, 1.496, 1.496, 1.496, 1.496, 1.496, 1.496, 1.499, 1.496, 1.496, 1.495, 1.495, 1.494, 1.494, 1.493, 1.492, 1.491, 1.49, 1.489, 1.488, 1.487, 1.486, 1.485, 1.484, 1.483, 1.482, 1.481, 1.48, 1.48, 1.48, 1.48, 1.481, 1.481, 1.482, 1.482, 1.483, 1.484, 1.483, 1.482, 1.482, 1.482, 1.482, 1.482, 1.481, 1.481, 1.481, 1.482, 1.482, 1.482, 1.483, 1.483, 1.483, 1.483, 1.482, 1.482, 1.481, 1.48, 1.479, 1.478, 1.477, 1.476, 1.475, 1.474, 1.474, 1.472, 1.472, 1.471, 1.47, 1.47, 1.468, 1.468, 1.468, 1.468, 1.47, 1.47, 1.47, 1.47, 1.47, 1.471, 1.472, 1.472, 1.472, 1.473, 1.474, 1.474, 1.475, 1.475, 1.476, 1.477, 1.478, 1.479, 1.479, 1.48, 1.48, 1.481, 1.481, 1.481, 1.481, 1.481, 1.481, 1.481, 1.481, 1.481, 1.481, 1.481, 1.481, 1.481, 1.482, 1.482, 1.482, 1.483, 1.484, 1.484, 1.484, 1.483, 1.482, 1.481, 1.48, 1.478, 1.477, 1.473, 1.472, 1.471, 1.468, 1.466, 1.466, 1.466, 1.464, 1.464, 1.464, 1.464, 1.464, 1.464, 1.464, 1.464, 1.464, 1.466, 1.466, 1.466, 1.468, 1.47, 1.47, 1.471, 1.472, 1.472, 1.474, 1.475, 1.478, 1.479, 1.479, 1.483, 1.484, 1.484, 1.484, 1.483, 1.482, 1.481, 1.478, 1.475, 1.473, 1.472, 1.47, 1.47, 1.469, 1.468, 1.468, 1.468, 1.466, 1.466, 1.466, 1.466, 1.466, 1.464, 1.464, 1.464, 1.464, 1.464, 1.464, 1.464, 1.466, 1.466, 1.469, 1.47, 1.471, 1.472, 1.472, 1.472, 1.472, 1.472, 1.473, 1.473, 1.474, 1.474, 1.475, 1.475, 1.476, 1.476, 1.476, 1.476, 1.475, 1.474, 1.474, 1.471, 1.468, 1.468, 1.466, 1.466, 1.464, 1.462, 1.462, 1.462, 1.462, 1.46, 1.46, 1.46, 1.458, 1.456, 1.456, 1.454
1.507, 1.507, 1.507, 1.508, 1.508, 1.508, 1.509, 1.51, 1.511, 1.512, 1.513, 1.518, 1.519, 1.523, 1.525, 1.526, 1.527, 1.527, 1.526, 1.526, 1.522, 1.521, 1.52, 1.52, 1.52, 1.52, 1.521, 1.522, 1.525, 1.526, 1.527, 1.527, 1.526, 1.525, 1.521, 1.517, 1.517, 1.511, 1.511, 1.511, 1.507, 1.507, 1.507, 1.507, 1.507, 1.508, 1.509, 1.51, 1.511, 1.511, 1.511, 1.512, 1.512, 1.512, 1.512, 1.512, 1.512, 1.513, 1.516, 1.517, 1.518, 1.519, 1.52, 1.52, 1.52, 1.517, 1.516, 1.511, 1.51, 1.509, 1.508, 1.507, 1.507, 1.507, 1.508, 1.509, 1.509, 1.509, 1.51, 1.511, 1.511, 1.512, 1.512, 1.513, 1.513, 1.513, 1.513, 1.513, 1.517, 1.517, 1.518, 1.518, 1.518, 1.518, 1.518, 1.518, 1.518, 1.517, 1.513, 1.513, 1.512, 1.511, 1.51, 1.509, 1.509, 1.509, 1.51, 1.511, 1.512, 1.513, 1.517, 1.518, 1.519, 1.519, 1.519, 1.518, 1.517, 1.517, 1.512, 1.511, 1.511, 1.51, 1.509, 1.509, 1.508, 1.507, 1.507, 1.507, 1.507, 1.506, 1.506, 1.506, 1.505, 1.505, 1.505, 1.505, 1.505, 1.505, 1.505, 1.505, 1.505, 1.505, 1.505, 1.505, 1.505, 1.504, 1.504, 1.503, 1.503, 1.503, 1.503, 1.503, 1.504, 1.504, 1.505, 1.506, 1.507, 1.508, 1.507, 1.507, 1.506, 1.505, 1.503, 1.502, 1.501, 1.501, 1.501, 1.501, 1.502, 1.503, 1.504, 1.505, 1.507, 1.507, 1.508, 1.509, 1.509, 1.509, 1.508, 1.507, 1.507, 1.506, 1.505, 1.504, 1.503, 1.502, 1.501, 1.5, 1.496, 1.495, 1.495, 1.494, 1.494, 1.494, 1.494, 1.494, 1.494, 1.495, 1.495, 1.496, 1.496, 1.5, 1.501, 1.502, 1.503, 1.503, 1.504, 1.503, 1.503, 1.502, 1.502, 1.501, 1.501, 1.501, 1.501, 1.501, 1.502, 1.502, 1.503, 1.503, 1.503, 1.503, 1.502, 1.501, 1.5, 1.5, 1.499, 1.499, 1.496, 1.496, 1.496, 1.496, 1.496, 1.495, 1.495, 1.495, 1.494, 1.494, 1.493, 1.492, 1.491, 1.49, 1.489, 1.489, 1.488, 1.487, 1.486, 1.485, 1.484, 1.483, 1.482, 1.481, 1.48, 1.479, 1.479, 1.479, 1.48, 1.48, 1.481, 1.482, 1.482, 1.483, 1.483, 1.483, 1.483, 1.482, 1.482, 1.482, 1.482, 1.482, 1.481, 1.481, 1.482, 1.482, 1.482, 1.482, 1.483, 1.483, 1.483, 1.483, 1.482, 1.481, 1.481, 1.48, 1.479, 1.478, 1.477, 1.476, 1.475, 1.474, 1.472, 1.472, 1.471, 1.47, 1.468, 1.468, 1.468, 1.468, 1.468, 1.468, 1.468, 1.47, 1.47, 1.47, 1.471, 1.472, 1.472, 1.472, 1.473, 1.473, 1.474, 1.474, 1.475, 1.476, 1.476, 1.477, 1.478, 1.479, 1.48, 1.48, 1.48, 1.48, 1.48, 1.48, 1.48, 1.48, 1.48, 1.48, 1.48, 1.48, 1.48, 1.48, 1.481, 1.481, 1.482, 1.482, 1.483, 1.483, 1.484, 1.484, 1.483, 1.483, 1.481, 1.48, 1.478, 1.477, 1.472, 1.471, 1.47, 1.468, 1.466, 1.466, 1.466, 1.464, 1.464, 1.464, 1.464, 1.464, 1.464, 1.464, 1.466, 1.466, 1.466, 1.466, 1.468, 1.468, 1.47, 1.471, 1.472, 1.473, 1.474, 1.475, 1.476, 1.478, 1.479, 1.48, 1.483, 1.484, 1.484, 1.483, 1.482, 1.481, 1.48, 1.477, 1.474, 1.473, 1.471, 1.47, 1.469, 1.468, 1.468, 1.468, 1.466, 1.466, 1.466, 1.466, 1.466, 1.464, 1.464, 1.462, 1.462, 1.462, 1.464, 1.464, 1.466, 1.466, 1.466, 1.469, 1.47, 1.471, 1.472, 1.472, 1.472, 1.472, 1.472, 1.472, 1.473, 1.473, 1.474, 1.475, 1.476, 1.476, 1.476, 1.476, 1.476, 1.475, 1.475, 1.474, 1.471, 1.471, 1.468, 1.466, 1.466, 1.464, 1.462, 1.462, 1.462, 1.462, 1.46, 1.46, 1.46, 1.458, 1.458, 1.456, 1.456
