1.528, 1.528, 1.531, 1.531, 1.531, 1.531, 1.531, 1.531, 1.531, 1.531, 1.531, 1.531, 1.531, 1.531, 1.531, 1.528, 1.528, 1.528, 1.528, 1.527, 1.526, 1.526, 1.526, 1.525, 1.524, 1.524, 1.524, 1.523, 1.523, 1.522, 1.521, 1.52, 1.52, 1.519, 1.518, 1.517, 1.516, 1.516, 1.516, 1.516, 1.516, 1.516, 1.516, 1.516, 1.517, 1.518, 1.52, 1.522, 1.523, 1.524, 1.524, 1.524, 1.523, 1.522, 1.521, 1.519, 1.518, 1.518, 1.518, 1.518, 1.518, 1.519, 1.519, 1.52, 1.52, 1.521, 1.522, 1.522, 1.522, 1.522, 1.522, 1.521, 1.52, 1.52, 1.52, 1.52, 1.519, 1.518, 1.518, 1.518, 1.518, 1.518, 1.519, 1.519, 1.519, 1.518, 1.518, 1.517, 1.516, 1.516, 1.516, 1.513, 1.513, 1.513, 1.513, 1.513, 1.513, 1.513, 1.516, 1.516, 1.516, 1.516, 1.516, 1.513, 1.513, 1.512, 1.511, 1.511, 1.51, 1.507, 1.502, 1.49, 1.479, 1.468, 1.456, 1.444, 1.432, 1.421, 1.412, 1.404, 1.402, 1.4, 1.399, 1.397, 1.395, 1.393, 1.393, 1.393, 1.393, 1.393, 1.393, 1.393, 1.395, 1.395, 1.397, 1.397, 1.397, 1.399, 1.399, 1.399, 1.4, 1.4, 1.399, 1.399, 1.399, 1.397, 1.397, 1.395, 1.393, 1.393, 1.393, 1.391, 1.391, 1.391, 1.391, 1.391, 1.393, 1.393, 1.395, 1.397, 1.399, 1.4, 1.402, 1.402, 1.402, 1.402, 1.4, 1.399, 1.397, 1.395, 1.393, 1.393, 1.391, 1.39, 1.39, 1.388, 1.388, 1.386, 1.386, 1.386, 1.384, 1.384, 1.384, 1.384, 1.384, 1.384, 1.384, 1.384, 1.384, 1.384, 1.384, 1.384, 1.384, 1.384, 1.384, 1.386, 1.386, 1.386, 1.386, 1.386, 1.388, 1.388, 1.39, 1.39, 1.388, 1.388, 1.386, 1.386, 1.384, 1.384, 1.384, 1.384, 1.384, 1.386, 1.386, 1.386, 1.384, 1.384, 1.382, 1.382, 1.381, 1.381, 1.379, 1.379, 1.381, 1.382, 1.382, 1.384, 1.384, 1.386, 1.386, 1.384, 1.384, 1.384, 1.384, 1.384, 1.384, 1.384, 1.388, 1.39, 1.391, 1.393, 1.393, 1.393, 1.393, 1.393, 1.391, 1.39, 1.388, 1.386, 1.386, 1.386, 1.386, 1.386, 1.384, 1.384, 1.382, 1.381, 1.381, 1.381, 1.379, 1.379, 1.379, 1.381, 1.381, 1.382, 1.382, 1.382, 1.382, 1.382, 1.382, 1.381, 1.381, 1.381, 1.381, 1.381, 1.381, 1.381, 1.381, 1.381, 1.381, 1.381, 1.381, 1.381, 1.379, 1.379, 1.379, 1.379, 1.379, 1.379, 1.379, 1.379, 1.379, 1.381, 1.381, 1.381, 1.381, 1.382, 1.382, 1.382, 1.382, 1.381, 1.381, 1.381, 1.379, 1.379, 1.379, 1.379, 1.379, 1.379, 1.379, 1.379, 1.381, 1.382, 1.388, 1.397, 1.404, 1.413, 1.423, 1.432, 1.444, 1.454, 1.464, 1.468, 1.471, 1.472, 1.474, 1.475, 1.476, 1.477, 1.478, 1.479, 1.48, 1.481, 1.482, 1.482, 1.482, 1.482, 1.482, 1.482, 1.482, 1.482, 1.482, 1.481, 1.481, 1.48, 1.48, 1.479, 1.479, 1.478, 1.478, 1.478, 1.478, 1.478, 1.478, 1.478, 1.478, 1.478, 1.478, 1.478, 1.478, 1.479, 1.479, 1.48, 1.48, 1.479, 1.478, 1.477, 1.476, 1.475, 1.474, 1.473, 1.473, 1.472, 1.472, 1.473, 1.473, 1.474, 1.473, 1.473, 1.472, 1.472, 1.472, 1.472, 1.472, 1.472, 1.472, 1.471, 1.471, 1.471, 1.47, 1.47, 1.468, 1.468, 1.468, 1.468, 1.468, 1.468, 1.468, 1.468, 1.468, 1.47, 1.47, 1.47, 1.47, 1.47, 1.471, 1.471, 1.472, 1.472, 1.472, 1.472, 1.472, 1.472, 1.472, 1.472, 1.472, 1.473, 1.474, 1.475, 1.476, 1.477, 1.478, 1.478, 1.477, 1.477, 1.476, 1.475, 1.474, 1.473, 1.472, 1.472, 1.471, 1.47, 1.47, 1.47, 1.47, 1.47, 1.47, 1.47, 1.47, 1.469, 1.469, 1.469, 1.469
1.528, 1.528, 1.528, 1.531, 1.531, 1.531, 1.531, 1.531, 1.531, 1.531, 1.531, 1.531, 1.531, 1.531, 1.531, 1.531, 1.528, 1.528, 1.528, 1.527, 1.526, 1.526, 1.526, 1.525, 1.524, 1.524, 1.524, 1.524, 1.523, 1.523, 1.522, 1.521, 1.52, 1.519, 1.518, 1.517, 1.516, 1.516, 1.516, 1.513, 1.513, 1.513, 1.513, 1.516, 1.517, 1.518, 1.519, 1.521, 1.522, 1.523, 1.524, 1.524, 1.524, 1.52, 1.519, 1.518, 1.517, 1.517, 1.517, 1.517, 1.517, 1.518, 1.519, 1.52, 1.52, 1.521, 1.521, 1.522, 1.522, 1.522, 1.522, 1.521, 1.52, 1.52, 1.52, 1.52, 1.519, 1.518, 1.518, 1.518, 1.518, 1.518, 1.518, 1.518, 1.518, 1.518, 1.518, 1.517, 1.516, 1.516, 1.516, 1.513, 1.513, 1.513, 1.513, 1.513, 1.513, 1.516, 1.516, 1.516, 1.516, 1.516, 1.516, 1.513, 1.513, 1.512, 1.511, 1.511, 1.51, 1.506, 1.501, 1.49, 1.479, 1.468, 1.456, 1.444, 1.432, 1.421, 1.412, 1.404, 1.402, 1.4, 1.399, 1.397, 1.395, 1.393, 1.393, 1.393, 1.393, 1.393, 1.393, 1.393, 1.395, 1.395, 1.397, 1.397, 1.397, 1.399, 1.399, 1.4, 1.4, 1.4, 1.4, 1.399, 1.399, 1.397, 1.397, 1.395, 1.393, 1.393, 1.393, 1.391, 1.391, 1.391, 1.391, 1.391, 1.393, 1.393, 1.395, 1.397, 1.399, 1.4, 1.402, 1.402, 1.402, 1.402, 1.4, 1.399, 1.397, 1.395, 1.393, 1.391, 1.39, 1.39, 1.388, 1.388, 1.386, 1.386, 1.386, 1.384, 1.384, 1.384, 1.384, 1.384, 1.384, 1.384, 1.384, 1.384, 1.384, 1.384, 1.384, 1.384, 1.384, 1.384, 1.384, 1.386, 1.386, 1.386, 1.386, 1.386, 1.388, 1.388, 1.39, 1.39, 1.388, 1.388, 1.386, 1.386, 1.384, 1.384, 1.384, 1.384, 1.384, 1.386, 1.386, 1.386, 1.386, 1.384, 1.384, 1.382, 1.382, 1.381, 1.381, 1.381, 1.381, 1.382, 1.382, 1.384, 1.384, 1.386, 1.386, 1.384, 1.384, 1.384, 1.384, 1.384, 1.384, 1.384, 1.388, 1.39, 1.39, 1.391, 1.393, 1.393, 1.393, 1.393, 1.39, 1.388, 1.386, 1.386, 1.386, 1.386, 1.386, 1.386, 1.384, 1.384, 1.384, 1.382, 1.381, 1.381, 1.379, 1.379, 1.381, 1.381, 1.381, 1.382, 1.382, 1.382, 1.382, 1.382, 1.382, 1.381, 1.381, 1.381, 1.381, 1.381, 1.381, 1.381, 1.381, 1.381, 1.381, 1.381, 1.381, 1.379, 1.379, 1.379, 1.379, 1.379, 1.379, 1.379, 1.379, 1.379, 1.379, 1.379, 1.381, 1.381, 1.381, 1.382, 1.382, 1.382, 1.382, 1.381, 1.381, 1.381, 1.381, 1.379, 1.379, 1.379, 1.379, 1.379, 1.379, 1.379, 1.381, 1.382, 1.388, 1.397, 1.404, 1.415, 1.425, 1.434, 1.444, 1.456, 1.464, 1.468, 1.471, 1.472, 1.474, 1.474, 1.476, 1.476, 1.478, 1.479, 1.48, 1.481, 1.482, 1.482, 1.482, 1.482, 1.482, 1.482, 1.482, 1.482, 1.481, 1.481, 1.48, 1.48, 1.479, 1.478, 1.478, 1.478, 1.478, 1.478, 1.478, 1.478, 1.478, 1.478, 1.478, 1.478, 1.478, 1.479, 1.479, 1.479, 1.48, 1.48, 1.479, 1.479, 1.478, 1.476, 1.475, 1.474, 1.473, 1.473, 1.472, 1.472, 1.472, 1.472, 1.473, 1.473, 1.473, 1.473, 1.473, 1.473, 1.473, 1.473, 1.473, 1.472, 1.472, 1.472, 1.472, 1.471, 1.471, 1.47, 1.47, 1.47, 1.468, 1.468, 1.468, 1.468, 1.468, 1.47, 1.47, 1.47, 1.47, 1.47, 1.471, 1.471, 1.471, 1.472, 1.472, 1.472, 1.472, 1.472, 1.472, 1.472, 1.472, 1.472, 1.473, 1.474, 1.475, 1.476, 1.477, 1.478, 1.479, 1.479, 1.478, 1.477, 1.476, 1.475, 1.474, 1.473, 1.472, 1.472, 1.471, 1.47, 1.47, 1.47, 1.47, 1.47, 1.47, 1.47, 1.47, 1.469, 1.469, 1.469, 1.469
1.527, 1.528, 1.528, 1.531, 1.531, 1.531, 1.532, 1.532, 1.531, 1.531, 1.531, 1.531, 1.531, 1.531, 1.531, 1.531, 1.528, 1.528, 1.528, 1.527, 1.526, 1.526, 1.525, 1.525, 1.524, 1.524, 1.524, 1.524, 1.524, 1.523, 1.522, 1.522, 1.52, 1.52, 1.518, 1.517, 1.517, 1.516, 1.516, 1.513, 1.513, 1.513, 1.513, 1.513, 1.516, 1.517, 1.519, 1.52, 1.522, 1.523, 1.524, 1.523, 1.523, 1.52, 1.519, 1.518, 1.517, 1.516, 1.516, 1.516, 1.516, 1.517, 1.518, 1.519, 1.52, 1.52, 1.521, 1.521, 1.521, 1.521, 1.521, 1.521, 1.52, 1.52, 1.52, 1.52, 1.519, 1.518, 1.518, 1.518, 1.518, 1.518, 1.518, 1.518, 1.518, 1.518, 1.517, 1.517, 1.516, 1.516, 1.516, 1.513, 1.513, 1.513, 1.513, 1.513, 1.516, 1.516, 1.516, 1.516, 1.516, 1.516, 1.516, 1.516, 1.513, 1.512, 1.511, 1.511, 1.51, 1.505, 1.501, 1.49, 1.478, 1.466, 1.456, 1.444, 1.432, 1.421, 1.41, 1.404, 1.402, 1.4, 1.399, 1.397, 1.395, 1.393, 1.393, 1.393, 1.393, 1.393, 1.393, 1.393, 1.395, 1.395, 1.397, 1.397, 1.399, 1.4, 1.4, 1.4, 1.4, 1.4, 1.4, 1.4, 1.399, 1.399, 1.397, 1.395, 1.393, 1.393, 1.393, 1.391, 1.391, 1.391, 1.391, 1.391, 1.393, 1.393, 1.395, 1.397, 1.399, 1.4, 1.402, 1.402, 1.402, 1.4, 1.4, 1.399, 1.397, 1.393, 1.393, 1.391, 1.39, 1.39, 1.388, 1.388, 1.386, 1.386, 1.386, 1.384, 1.384, 1.384, 1.384, 1.384, 1.384, 1.384, 1.382, 1.382, 1.384, 1.384, 1.384, 1.384, 1.384, 1.384, 1.386, 1.386, 1.386, 1.386, 1.386, 1.386, 1.388, 1.388, 1.39, 1.388, 1.388, 1.386, 1.386, 1.384, 1.384, 1.384, 1.384, 1.384, 1.384, 1.386, 1.386, 1.386, 1.386, 1.384, 1.384, 1.384, 1.382, 1.381, 1.381, 1.381, 1.381, 1.382, 1.382, 1.384, 1.384, 1.386, 1.386, 1.384, 1.384, 1.384, 1.384, 1.384, 1.384, 1.384, 1.388, 1.39, 1.39, 1.391, 1.391, 1.391, 1.391, 1.391, 1.39, 1.388, 1.386, 1.386, 1.386, 1.386, 1.386, 1.386, 1.384, 1.384, 1.384, 1.382, 1.381, 1.381, 1.381, 1.381, 1.381, 1.381, 1.382, 1.382, 1.382, 1.382, 1.382, 1.382, 1.382, 1.381, 1.381, 1.381, 1.381, 1.381, 1.381, 1.381, 1.381, 1.381, 1.381, 1.381, 1.379, 1.379, 1.379, 1.379, 1.379, 1.379, 1.377, 1.377, 1.377, 1.379, 1.379, 1.379, 1.379, 1.381, 1.381, 1.381, 1.382, 1.382, 1.382, 1.381, 1.381, 1.381, 1.381, 1.379, 1.379, 1.379, 1.379, 1.379, 1.379, 1.381, 1.381, 1.382, 1.39, 1.397, 1.406, 1.415, 1.425, 1.436, 1.446, 1.456, 1.466, 1.468, 1.471, 1.472, 1.473, 1.474, 1.475, 1.476, 1.477, 1.478, 1.479, 1.48, 1.481, 1.482, 1.482, 1.482, 1.482, 1.482, 1.482, 1.481, 1.481, 1.48, 1.479, 1.479, 1.478, 1.478, 1.477, 1.477, 1.477, 1.478, 1.478, 1.478, 1.479, 1.479, 1.479, 1.479, 1.479, 1.48, 1.48, 1.48, 1.48, 1.48, 1.479, 1.478, 1.477, 1.476, 1.475, 1.474, 1.473, 1.472, 1.472, 1.472, 1.472, 1.472, 1.472, 1.473, 1.474, 1.473, 1.473, 1.473, 1.473, 1.473, 1.473, 1.473, 1.473, 1.473, 1.473, 1.472, 1.471, 1.471, 1.47, 1.47, 1.47, 1.47, 1.47, 1.47, 1.47, 1.47, 1.47, 1.47, 1.471, 1.471, 1.471, 1.472, 1.472, 1.472, 1.472, 1.472, 1.472, 1.472, 1.472, 1.472, 1.472, 1.472, 1.473, 1.474, 1.476, 1.477, 1.478, 1.479, 1.479, 1.479, 1.478, 1.478, 1.476, 1.476, 1.474, 1.474, 1.472, 1.472, 1.471, 1.47, 1.47, 1.47, 1.47, 1.47, 1.47, 1.47, 1.47, 1.469, 1.469, 1.469, 1.469
1.527, 1.528, 1.528, 1.531, 1.531, 1.531, 1.532, 1.532, 1.532, 1.532, 1.531, 1.531, 1.531, 1.531, 1.531, 1.528, 1.528, 1.528, 1.528, 1.527, 1.526, 1.526, 1.525, 1.524, 1.524, 1.524, 1.524, 1.524, 1.524, 1.524, 1.523, 1.522, 1.521, 1.52, 1.519, 1.518, 1.517, 1.517, 1.516, 1.513, 1.513, 1.513, 1.513, 1.513, 1.516, 1.517, 1.518, 1.52, 1.522, 1.523, 1.523, 1.523, 1.522, 1.52, 1.518, 1.517, 1.516, 1.516, 1.516, 1.516, 1.516, 1.517, 1.518, 1.519, 1.52, 1.52, 1.52, 1.52, 1.521, 1.521, 1.52, 1.52, 1.52, 1.52, 1.52, 1.52, 1.519, 1.519, 1.518, 1.518, 1.518, 1.518, 1.518, 1.518, 1.518, 1.518, 1.517, 1.517, 1.516, 1.516, 1.516, 1.516, 1.513, 1.513, 1.513, 1.513, 1.516, 1.516, 1.516, 1.516, 1.516, 1.516, 1.516, 1.516, 1.513, 1.512, 1.511, 1.511, 1.51, 1.505, 1.501, 1.49, 1.479, 1.466, 1.456, 1.444, 1.432, 1.421, 1.41, 1.404, 1.402, 1.4, 1.399, 1.395, 1.395, 1.393, 1.393, 1.393, 1.393, 1.393, 1.393, 1.393, 1.395, 1.397, 1.397, 1.397, 1.399, 1.4, 1.4, 1.4, 1.402, 1.402, 1.4, 1.4, 1.399, 1.399, 1.397, 1.395, 1.395, 1.393, 1.393, 1.391, 1.391, 1.391, 1.391, 1.391, 1.391, 1.393, 1.393, 1.397, 1.399, 1.4, 1.402, 1.402, 1.402, 1.4, 1.4, 1.399, 1.395, 1.393, 1.391, 1.39, 1.39, 1.388, 1.388, 1.388, 1.386, 1.386, 1.386, 1.384, 1.384, 1.384, 1.384, 1.384, 1.384, 1.382, 1.382, 1.382, 1.384, 1.384, 1.384, 1.384, 1.384, 1.384, 1.386, 1.386, 1.386, 1.386, 1.386, 1.386, 1.388, 1.388, 1.388, 1.388, 1.386, 1.386, 1.386, 1.384, 1.382, 1.382, 1.382, 1.382, 1.384, 1.386, 1.386, 1.386, 1.386, 1.386, 1.384, 1.384, 1.384, 1.382, 1.381, 1.381, 1.382, 1.382, 1.384, 1.384, 1.384, 1.386, 1.384, 1.384, 1.384, 1.384, 1.384, 1.384, 1.384, 1.384, 1.388, 1.39, 1.39, 1.391, 1.391, 1.391, 1.391, 1.39, 1.388, 1.386, 1.386, 1.386, 1.386, 1.386, 1.386, 1.386, 1.386, 1.384, 1.384, 1.382, 1.382, 1.381, 1.381, 1.381, 1.381, 1.381, 1.382, 1.382, 1.382, 1.382, 1.382, 1.382, 1.382, 1.382, 1.381, 1.381, 1.381, 1.381, 1.381, 1.381, 1.381, 1.381, 1.381, 1.379, 1.379, 1.379, 1.379, 1.379, 1.379, 1.377, 1.377, 1.377, 1.377, 1.377, 1.379, 1.379, 1.379, 1.381, 1.381, 1.381, 1.381, 1.381, 1.381, 1.381, 1.381, 1.381, 1.381, 1.379, 1.379, 1.379, 1.379, 1.379, 1.381, 1.381, 1.381, 1.382, 1.39, 1.397, 1.406, 1.415, 1.425, 1.436, 1.446, 1.456, 1.466, 1.468, 1.471, 1.472, 1.473, 1.474, 1.475, 1.476, 1.477, 1.478, 1.479, 1.48, 1.481, 1.481, 1.482, 1.482, 1.482, 1.482, 1.481, 1.481, 1.48, 1.479, 1.478, 1.478, 1.477, 1.477, 1.476, 1.476, 1.477, 1.477, 1.478, 1.478, 1.479, 1.48, 1.48, 1.48, 1.48, 1.48, 1.48, 1.48, 1.48, 1.48, 1.479, 1.478, 1.477, 1.475, 1.474, 1.473, 1.472, 1.472, 1.472, 1.472, 1.472, 1.472, 1.472, 1.473, 1.473, 1.474, 1.474, 1.474, 1.474, 1.474, 1.474, 1.474, 1.474, 1.474, 1.473, 1.473, 1.472, 1.471, 1.47, 1.47, 1.47, 1.47, 1.47, 1.47, 1.47, 1.47, 1.47, 1.471, 1.471, 1.472, 1.472, 1.472, 1.472, 1.472, 1.472, 1.472, 1.472, 1.472, 1.472, 1.472, 1.472, 1.472, 1.473, 1.474, 1.476, 1.477, 1.478, 1.479, 1.48, 1.479, 1.479, 1.478, 1.477, 1.476, 1.474, 1.474, 1.472, 1.472, 1.471, 1.47, 1.47, 1.469, 1.469, 1.469, 1.469, 1.47, 1.47, 1.469, 1.469, 1.469, 1.469
1.527, 1.528, 1.528, 1.528, 1.531, 1.531, 1.532, 1.533, 1.533, 1.532, 1.531, 1.531, 1.531, 1.531, 1.531, 1.528, 1.528, 1.528, 1.528, 1.527, 1.526, 1.525, 1.525, 1.524, 1.524, 1.524, 1.524, 1.524, 1.524, 1.524, 1.524, 1.523, 1.522, 1.521, 1.52, 1.519, 1.518, 1.517, 1.516, 1.516, 1.513, 1.513, 1.513, 1.513, 1.513, 1.517, 1.518, 1.52, 1.521, 1.523, 1.523, 1.522, 1.521, 1.52, 1.517, 1.516, 1.516, 1.513, 1.513, 1.513, 1.516, 1.516, 1.517, 1.518, 1.519, 1.52, 1.52, 1.52, 1.52, 1.52, 1.52, 1.52, 1.52, 1.52, 1.52, 1.52, 1.52, 1.519, 1.518, 1.518, 1.518, 1.518, 1.518, 1.518, 1.518, 1.518, 1.517, 1.517, 1.516, 1.516, 1.516, 1.516, 1.513, 1.513, 1.516, 1.516, 1.516, 1.516, 1.516, 1.516, 1.516, 1.516, 1.516, 1.516, 1.516, 1.512, 1.511, 1.511, 1.51, 1.506, 1.501, 1.49, 1.479, 1.468, 1.456, 1.444, 1.432, 1.421, 1.413, 1.406, 1.402, 1.4, 1.399, 1.395, 1.395, 1.393, 1.393, 1.393, 1.393, 1.393, 1.393, 1.393, 1.395, 1.397, 1.397, 1.399, 1.4, 1.4, 1.4, 1.402, 1.402, 1.402, 1.402, 1.4, 1.399, 1.399, 1.397, 1.397, 1.395, 1.393, 1.393, 1.391, 1.391, 1.391, 1.391, 1.391, 1.391, 1.393, 1.393, 1.395, 1.399, 1.4, 1.4, 1.402, 1.4, 1.4, 1.4, 1.397, 1.395, 1.393, 1.391, 1.39, 1.39, 1.388, 1.388, 1.388, 1.386, 1.386, 1.386, 1.384, 1.384, 1.384, 1.384, 1.384, 1.382, 1.382, 1.382, 1.382, 1.382, 1.384, 1.384, 1.384, 1.384, 1.384, 1.386, 1.386, 1.386, 1.386, 1.386, 1.388, 1.388, 1.388, 1.388, 1.388, 1.386, 1.386, 1.384, 1.382, 1.382, 1.382, 1.382, 1.382, 1.384, 1.386, 1.386, 1.388, 1.388, 1.386, 1.386, 1.384, 1.384, 1.384, 1.382, 1.382, 1.382, 1.382, 1.384, 1.384, 1.384, 1.384, 1.384, 1.384, 1.384, 1.384, 1.384, 1.384, 1.384, 1.384, 1.386, 1.388, 1.39, 1.39, 1.39, 1.39, 1.39, 1.39, 1.386, 1.386, 1.386, 1.386, 1.384, 1.384, 1.386, 1.386, 1.386, 1.384, 1.384, 1.382, 1.382, 1.382, 1.381, 1.381, 1.381, 1.382, 1.382, 1.382, 1.382, 1.384, 1.384, 1.384, 1.382, 1.382, 1.381, 1.381, 1.381, 1.381, 1.381, 1.381, 1.381, 1.381, 1.379, 1.379, 1.379, 1.379, 1.379, 1.379, 1.377, 1.377, 1.377, 1.377, 1.377, 1.377, 1.377, 1.379, 1.379, 1.379, 1.381, 1.381, 1.381, 1.381, 1.381, 1.381, 1.381, 1.381, 1.381, 1.381, 1.381, 1.381, 1.381, 1.381, 1.381, 1.381, 1.381, 1.382, 1.388, 1.397, 1.406, 1.415, 1.425, 1.434, 1.444, 1.456, 1.466, 1.468, 1.471, 1.472, 1.472, 1.473, 1.474, 1.475, 1.476, 1.477, 1.478, 1.479, 1.48, 1.481, 1.482, 1.482, 1.482, 1.482, 1.481, 1.48, 1.479, 1.478, 1.478, 1.477, 1.476, 1.476, 1.476, 1.476, 1.476, 1.477, 1.478, 1.478, 1.479, 1.479, 1.48, 1.48, 1.48, 1.48, 1.48, 1.48, 1.48, 1.479, 1.478, 1.477, 1.476, 1.475, 1.474, 1.473, 1.472, 1.472, 1.472, 1.472, 1.472, 1.472, 1.472, 1.472, 1.473, 1.473, 1.474, 1.474, 1.474, 1.474, 1.474, 1.474, 1.474, 1.474, 1.474, 1.473, 1.472, 1.471, 1.471, 1.47, 1.47, 1.47, 1.47, 1.47, 1.47, 1.47, 1.471, 1.471, 1.472, 1.472, 1.472, 1.473, 1.473, 1.473, 1.472, 1.472, 1.472, 1.472, 1.472, 1.472, 1.472, 1.472, 1.473, 1.474, 1.475, 1.477, 1.478, 1.479, 1.48, 1.48, 1.479, 1.478, 1.477, 1.476, 1.474, 1.474, 1.472, 1.472, 1.471, 1.47, 1.469, 1.468, 1.468, 1.468, 1.469, 1.469, 1.469, 1.469, 1.468, 1.469, 1.469
1.526, 1.527, 1.528, 1.528, 1.531, 1.532, 1.532, 1.533, 1.533, 1.532, 1.532, 1.531, 1.531, 1.531, 1.528, 1.528, 1.528, 1.528, 1.528, 1.527, 1.526, 1.525, 1.524, 1.524, 1.524, 1.524, 1.524, 1.524, 1.524, 1.524, 1.524, 1.524, 1.523, 1.522, 1.521, 1.52, 1.519, 1.518, 1.517, 1.516, 1.513, 1.513, 1.513, 1.513, 1.513, 1.517, 1.518, 1.52, 1.521, 1.522, 1.523, 1.522, 1.521, 1.52, 1.516, 1.516, 1.513, 1.513, 1.513, 1.513, 1.516, 1.516, 1.517, 1.518, 1.519, 1.52, 1.52, 1.52, 1.52, 1.52, 1.52, 1.52, 1.52, 1.52, 1.52, 1.52, 1.52, 1.519, 1.519, 1.519, 1.518, 1.518, 1.518, 1.518, 1.518, 1.518, 1.517, 1.516, 1.516, 1.516, 1.516, 1.516, 1.516, 1.516, 1.516, 1.516, 1.516, 1.516, 1.516, 1.516, 1.516, 1.516, 1.516, 1.516, 1.516, 1.512, 1.512, 1.511, 1.51, 1.506, 1.502, 1.491, 1.48, 1.468, 1.456, 1.446, 1.434, 1.423, 1.413, 1.406, 1.402, 1.4, 1.399, 1.395, 1.395, 1.393, 1.393, 1.393, 1.393, 1.393, 1.393, 1.393, 1.395, 1.397, 1.397, 1.399, 1.4, 1.4, 1.402, 1.402, 1.402, 1.402, 1.402, 1.4, 1.4, 1.399, 1.399, 1.397, 1.395, 1.393, 1.393, 1.393, 1.391, 1.391, 1.391, 1.391, 1.391, 1.393, 1.393, 1.395, 1.399, 1.4, 1.4, 1.4, 1.4, 1.4, 1.399, 1.397, 1.395, 1.393, 1.391, 1.39, 1.39, 1.388, 1.388, 1.388, 1.388, 1.386, 1.386, 1.386, 1.386, 1.384, 1.384, 1.384, 1.382, 1.382, 1.382, 1.382, 1.382, 1.384, 1.384, 1.384, 1.384, 1.384, 1.386, 1.386, 1.386, 1.386, 1.386, 1.386, 1.388, 1.388, 1.388, 1.386, 1.386, 1.386, 1.384, 1.382, 1.382, 1.382, 1.382, 1.382, 1.384, 1.386, 1.388, 1.388, 1.388, 1.388, 1.388, 1.386, 1.384, 1.384, 1.382, 1.382, 1.382, 1.382, 1.384, 1.384, 1.384, 1.384, 1.384, 1.384, 1.384, 1.384, 1.384, 1.384, 1.384, 1.384, 1.386, 1.388, 1.388, 1.39, 1.388, 1.388, 1.388, 1.388, 1.386, 1.386, 1.384, 1.384, 1.384, 1.384, 1.384, 1.384, 1.384, 1.384, 1.384, 1.382, 1.382, 1.382, 1.382, 1.382, 1.382, 1.382, 1.382, 1.382, 1.384, 1.384, 1.384, 1.384, 1.384, 1.382, 1.382, 1.381, 1.381, 1.381, 1.381, 1.381, 1.379, 1.379, 1.379, 1.379, 1.379, 1.379, 1.379, 1.379, 1.377, 1.377, 1.377, 1.377, 1.377, 1.377, 1.377, 1.377, 1.379, 1.379, 1.379, 1.381, 1.381, 1.381, 1.381, 1.381, 1.382, 1.382, 1.382, 1.381, 1.381, 1.381, 1.381, 1.381, 1.381, 1.381, 1.381, 1.382, 1.388, 1.395, 1.404, 1.413, 1.423, 1.432, 1.444, 1.454, 1.464, 1.468, 1.471, 1.472, 1.472, 1.473, 1.474, 1.475, 1.476, 1.477, 1.478, 1.479, 1.48, 1.481, 1.481, 1.482, 1.482, 1.481, 1.48, 1.479, 1.478, 1.477, 1.477, 1.476, 1.475, 1.475, 1.475, 1.475, 1.476, 1.477, 1.477, 1.478, 1.478, 1.479, 1.48, 1.48, 1.48, 1.48, 1.48, 1.48, 1.48, 1.479, 1.478, 1.477, 1.475, 1.474, 1.473, 1.472, 1.471, 1.471, 1.471, 1.471, 1.471, 1.472, 1.472, 1.472, 1.472, 1.473, 1.474, 1.474, 1.474, 1.474, 1.474, 1.474, 1.474, 1.474, 1.474, 1.474, 1.473, 1.472, 1.471, 1.471, 1.47, 1.47, 1.47, 1.47, 1.47, 1.471, 1.471, 1.472, 1.472, 1.472, 1.473, 1.473, 1.474, 1.473, 1.472, 1.472, 1.472, 1.472, 1.472, 1.472, 1.472, 1.472, 1.473, 1.474, 1.475, 1.476, 1.477, 1.478, 1.479, 1.479, 1.479, 1.478, 1.477, 1.476, 1.474, 1.474, 1.472, 1.472, 1.47, 1.469, 1.468, 1.468, 1.468, 1.468, 1.468, 1.468, 1.468, 1.468, 1.468, 1.468, 1.469
1.526, 1.527, 1.528, 1.528, 1.531, 1.532, 1.532, 1.533, 1.533, 1.533, 1.532, 1.531, 1.531, 1.531, 1.528, 1.528, 1.528, 1.528, 1.527, 1.526, 1.526, 1.525, 1.524, 1.524, 1.524, 1.524, 1.524, 1.524, 1.525, 1.525, 1.525, 1.525, 1.524, 1.523, 1.522, 1.52, 1.52, 1.518, 1.517, 1.516, 1.513, 1.513, 1.513, 1.513, 1.513, 1.517, 1.518, 1.52, 1.52, 1.522, 1.522, 1.522, 1.521, 1.52, 1.516, 1.516, 1.513, 1.513, 1.513, 1.513, 1.513, 1.516, 1.517, 1.518, 1.519, 1.52, 1.52, 1.52, 1.52, 1.52, 1.52, 1.52, 1.52, 1.52, 1.52, 1.52, 1.52, 1.52, 1.519, 1.519, 1.519, 1.518, 1.518, 1.518, 1.518, 1.518, 1.517, 1.516, 1.516, 1.516, 1.516, 1.516, 1.516, 1.516, 1.516, 1.516, 1.516, 1.516, 1.516, 1.516, 1.516, 1.516, 1.516, 1.516, 1.516, 1.513, 1.512, 1.511, 1.51, 1.507, 1.502, 1.491, 1.48, 1.468, 1.458, 1.446, 1.434, 1.423, 1.413, 1.406, 1.402, 1.4, 1.399, 1.395, 1.395, 1.393, 1.393, 1.393, 1.393, 1.393, 1.393, 1.393, 1.395, 1.397, 1.397, 1.399, 1.4, 1.4, 1.402, 1.402, 1.402, 1.402, 1.402, 1.4, 1.4, 1.399, 1.399, 1.397, 1.395, 1.393, 1.393, 1.393, 1.391, 1.391, 1.391, 1.391, 1.393, 1.393, 1.393, 1.395, 1.399, 1.4, 1.4, 1.4, 1.4, 1.4, 1.399, 1.397, 1.393, 1.391, 1.39, 1.39, 1.39, 1.388, 1.388, 1.388, 1.388, 1.388, 1.386, 1.386, 1.386, 1.384, 1.384, 1.384, 1.382, 1.382, 1.382, 1.382, 1.382, 1.384, 1.384, 1.384, 1.384, 1.384, 1.386, 1.386, 1.386, 1.386, 1.386, 1.386, 1.388, 1.388, 1.386, 1.386, 1.386, 1.384, 1.382, 1.382, 1.382, 1.382, 1.382, 1.382, 1.384, 1.386, 1.388, 1.39, 1.39, 1.388, 1.388, 1.388, 1.386, 1.384, 1.382, 1.382, 1.382, 1.382, 1.384, 1.384, 1.384, 1.384, 1.384, 1.384, 1.384, 1.384, 1.384, 1.384, 1.384, 1.384, 1.386, 1.386, 1.386, 1.388, 1.388, 1.388, 1.388, 1.386, 1.386, 1.384, 1.384, 1.384, 1.384, 1.384, 1.384, 1.384, 1.384, 1.384, 1.384, 1.382, 1.382, 1.382, 1.382, 1.382, 1.382, 1.382, 1.382, 1.384, 1.384, 1.384, 1.384, 1.384, 1.384, 1.384, 1.382, 1.382, 1.381, 1.381, 1.381, 1.381, 1.379, 1.379, 1.379, 1.379, 1.379, 1.379, 1.379, 1.377, 1.377, 1.377, 1.377, 1.377, 1.377, 1.377, 1.377, 1.377, 1.377, 1.379, 1.379, 1.381, 1.381, 1.381, 1.381, 1.381, 1.382, 1.382, 1.382, 1.382, 1.382, 1.382, 1.382, 1.382, 1.381, 1.381, 1.381, 1.382, 1.388, 1.395, 1.404, 1.413, 1.423, 1.432, 1.444, 1.454, 1.464, 1.47, 1.471, 1.472, 1.472, 1.473, 1.474, 1.474, 1.475, 1.476, 1.477, 1.478, 1.479, 1.48, 1.481, 1.481, 1.481, 1.48, 1.479, 1.478, 1.477, 1.476, 1.475, 1.475, 1.474, 1.474, 1.474, 1.475, 1.476, 1.476, 1.477, 1.478, 1.478, 1.479, 1.479, 1.48, 1.48, 1.48, 1.48, 1.48, 1.479, 1.479, 1.478, 1.476, 1.474, 1.473, 1.472, 1.471, 1.47, 1.47, 1.47, 1.47, 1.471, 1.472, 1.472, 1.472, 1.472, 1.472, 1.473, 1.474, 1.474, 1.474, 1.474, 1.474, 1.474, 1.474, 1.474, 1.474, 1.473, 1.472, 1.472, 1.471, 1.47, 1.47, 1.47, 1.47, 1.471, 1.471, 1.472, 1.472, 1.472, 1.472, 1.473, 1.473, 1.474, 1.473, 1.472, 1.472, 1.472, 1.472, 1.472, 1.472, 1.472, 1.472, 1.472, 1.473, 1.474, 1.475, 1.476, 1.477, 1.478, 1.479, 1.478, 1.478, 1.477, 1.476, 1.474, 1.474, 1.472, 1.472, 1.471, 1.468, 1.468, 1.468, 1.466, 1.466, 1.466, 1.468, 1.468, 1.468, 1.468, 1.468, 1.469
1.527, 1.528, 1.528, 1.528, 1.531, 1.532, 1.532, 1.533, 1.533, 1.533, 1.533, 1.532, 1.531, 1.531, 1.528, 1.528, 1.528, 1.528, 1.527, 1.526, 1.526, 1.525, 1.524, 1.524, 1.524, 1.524, 1.525, 1.525, 1.526, 1.526, 1.526, 1.525, 1.525, 1.524, 1.524, 1.521, 1.52, 1.519, 1.518, 1.517, 1.516, 1.513, 1.513, 1.513, 1.513, 1.517, 1.518, 1.519, 1.52, 1.521, 1.522, 1.521, 1.521, 1.52, 1.516, 1.516, 1.513, 1.513, 1.513, 1.513, 1.513, 1.516, 1.517, 1.518, 1.519, 1.52, 1.52, 1.52, 1.52, 1.52, 1.52, 1.52, 1.52, 1.52, 1.52, 1.52, 1.52, 1.52, 1.52, 1.519, 1.519, 1.518, 1.518, 1.518, 1.518, 1.517, 1.517, 1.516, 1.516, 1.516, 1.516, 1.516, 1.516, 1.516, 1.516, 1.516, 1.516, 1.516, 1.516, 1.516, 1.516, 1.516, 1.516, 1.516, 1.516, 1.513, 1.512, 1.511, 1.51, 1.507, 1.502, 1.491, 1.48, 1.468, 1.456, 1.446, 1.434, 1.423, 1.413, 1.406, 1.402, 1.4, 1.399, 1.397, 1.395, 1.393, 1.393, 1.393, 1.393, 1.393, 1.393, 1.393, 1.395, 1.397, 1.397, 1.399, 1.4, 1.4, 1.402, 1.402, 1.402, 1.402, 1.402, 1.4, 1.4, 1.399, 1.399, 1.397, 1.395, 1.393, 1.393, 1.393, 1.393, 1.391, 1.391, 1.391, 1.393, 1.393, 1.393, 1.395, 1.399, 1.399, 1.4, 1.4, 1.4, 1.399, 1.397, 1.395, 1.393, 1.391, 1.39, 1.39, 1.39, 1.388, 1.388, 1.388, 1.388, 1.388, 1.388, 1.386, 1.386, 1.386, 1.384, 1.384, 1.382, 1.382, 1.382, 1.382, 1.382, 1.384, 1.384, 1.384, 1.384, 1.384, 1.386, 1.386, 1.386, 1.386, 1.386, 1.386, 1.388, 1.386, 1.386, 1.386, 1.386, 1.384, 1.382, 1.382, 1.382, 1.382, 1.382, 1.382, 1.384, 1.386, 1.388, 1.39, 1.39, 1.39, 1.388, 1.388, 1.386, 1.384, 1.384, 1.382, 1.382, 1.384, 1.384, 1.384, 1.384, 1.384, 1.384, 1.384, 1.384, 1.384, 1.384, 1.384, 1.384, 1.384, 1.386, 1.386, 1.386, 1.386, 1.386, 1.386, 1.386, 1.386, 1.384, 1.384, 1.384, 1.384, 1.384, 1.384, 1.384, 1.384, 1.384, 1.384, 1.384, 1.382, 1.382, 1.382, 1.382, 1.382, 1.382, 1.382, 1.382, 1.384, 1.384, 1.386, 1.386, 1.386, 1.386, 1.384, 1.382, 1.382, 1.382, 1.381, 1.381, 1.381, 1.379, 1.379, 1.379, 1.379, 1.377, 1.377, 1.377, 1.377, 1.377, 1.377, 1.377, 1.377, 1.377, 1.377, 1.377, 1.377, 1.377, 1.379, 1.379, 1.379, 1.381, 1.381, 1.381, 1.381, 1.382, 1.382, 1.382, 1.382, 1.382, 1.382, 1.382, 1.382, 1.382, 1.382, 1.382, 1.382, 1.388, 1.395, 1.404, 1.413, 1.423, 1.432, 1.442, 1.452, 1.464, 1.47, 1.471, 1.472, 1.472, 1.472, 1.473, 1.474, 1.475, 1.476, 1.477, 1.478, 1.479, 1.48, 1.48, 1.48, 1.48, 1.479, 1.478, 1.477, 1.476, 1.475, 1.474, 1.474, 1.474, 1.474, 1.474, 1.474, 1.475, 1.476, 1.477, 1.478, 1.478, 1.478, 1.479, 1.479, 1.479, 1.48, 1.48, 1.48, 1.479, 1.478, 1.477, 1.476, 1.474, 1.473, 1.472, 1.471, 1.47, 1.47, 1.47, 1.47, 1.471, 1.471, 1.472, 1.472, 1.472, 1.472, 1.473, 1.474, 1.474, 1.474, 1.474, 1.474, 1.474, 1.474, 1.474, 1.474, 1.473, 1.472, 1.472, 1.471, 1.471, 1.47, 1.47, 1.47, 1.471, 1.472, 1.472, 1.472, 1.472, 1.472, 1.472, 1.473, 1.473, 1.473, 1.472, 1.472, 1.472, 1.472, 1.472, 1.472, 1.472, 1.472, 1.472, 1.473, 1.474, 1.475, 1.476, 1.476, 1.477, 1.478, 1.478, 1.477, 1.477, 1.476, 1.474, 1.474, 1.472, 1.472, 1.471, 1.468, 1.468, 1.466, 1.466, 1.466, 1.466, 1.466, 1.466, 1.466, 1.466, 1.466, 1.468
1.527, 1.528, 1.528, 1.528, 1.531, 1.532, 1.532, 1.533, 1.533, 1.533, 1.533, 1.532, 1.531, 1.531, 1.528, 1.528, 1.528, 1.528, 1.527, 1.526, 1.526, 1.525, 1.524, 1.524, 1.524, 1.525, 1.525, 1.526, 1.526, 1.527, 1.527, 1.526, 1.526, 1.525, 1.524, 1.522, 1.522, 1.52, 1.518, 1.517, 1.516, 1.516, 1.513, 1.513, 1.516, 1.517, 1.518, 1.519, 1.52, 1.521, 1.522, 1.521, 1.521, 1.52, 1.516, 1.516, 1.513, 1.513, 1.513, 1.513, 1.513, 1.516, 1.517, 1.518, 1.519, 1.52, 1.52, 1.52, 1.52, 1.52, 1.52, 1.52, 1.52, 1.52, 1.52, 1.52, 1.52, 1.52, 1.519, 1.519, 1.518, 1.518, 1.518, 1.517, 1.517, 1.516, 1.516, 1.516, 1.516, 1.516, 1.516, 1.516, 1.516, 1.516, 1.516, 1.516, 1.517, 1.517, 1.517, 1.517, 1.517, 1.517, 1.517, 1.516, 1.516, 1.516, 1.512, 1.512, 1.511, 1.508, 1.503, 1.492, 1.481, 1.468, 1.456, 1.446, 1.434, 1.423, 1.413, 1.406, 1.402, 1.4, 1.399, 1.397, 1.395, 1.393, 1.393, 1.393, 1.393, 1.393, 1.393, 1.393, 1.395, 1.397, 1.397, 1.399, 1.4, 1.402, 1.402, 1.402, 1.402, 1.402, 1.402, 1.402, 1.4, 1.399, 1.399, 1.397, 1.397, 1.395, 1.393, 1.393, 1.393, 1.393, 1.393, 1.393, 1.393, 1.393, 1.393, 1.395, 1.397, 1.399, 1.399, 1.399, 1.399, 1.397, 1.397, 1.395, 1.393, 1.39, 1.39, 1.39, 1.388, 1.388, 1.388, 1.388, 1.388, 1.388, 1.388, 1.386, 1.386, 1.386, 1.386, 1.384, 1.382, 1.382, 1.382, 1.382, 1.382, 1.382, 1.384, 1.384, 1.384, 1.384, 1.386, 1.386, 1.386, 1.386, 1.386, 1.386, 1.386, 1.386, 1.386, 1.386, 1.384, 1.384, 1.382, 1.382, 1.382, 1.382, 1.382, 1.382, 1.384, 1.386, 1.388, 1.39, 1.39, 1.39, 1.39, 1.388, 1.388, 1.386, 1.384, 1.384, 1.384, 1.384, 1.384, 1.384, 1.384, 1.384, 1.384, 1.384, 1.384, 1.384, 1.384, 1.384, 1.384, 1.384, 1.384, 1.386, 1.386, 1.386, 1.384, 1.384, 1.384, 1.384, 1.382, 1.382, 1.382, 1.382, 1.382, 1.384, 1.384, 1.384, 1.384, 1.384, 1.384, 1.384, 1.382, 1.382, 1.382, 1.382, 1.382, 1.382, 1.384, 1.384, 1.386, 1.386, 1.386, 1.386, 1.386, 1.386, 1.384, 1.382, 1.382, 1.381, 1.381, 1.381, 1.379, 1.379, 1.379, 1.377, 1.377, 1.377, 1.377, 1.377, 1.377, 1.377, 1.377, 1.377, 1.377, 1.377, 1.377, 1.377, 1.377, 1.377, 1.379, 1.379, 1.381, 1.381, 1.381, 1.381, 1.382, 1.382, 1.382, 1.382, 1.382, 1.382, 1.382, 1.382, 1.382, 1.382, 1.382, 1.382, 1.388, 1.395, 1.404, 1.413, 1.423, 1.432, 1.442, 1.452, 1.464, 1.47, 1.471, 1.472, 1.472, 1.472, 1.473, 1.474, 1.474, 1.475, 1.476, 1.478, 1.478, 1.479, 1.48, 1.48, 1.479, 1.478, 1.477, 1.476, 1.475, 1.474, 1.473, 1.473, 1.472, 1.473, 1.473, 1.474, 1.475, 1.475, 1.476, 1.477, 1.478, 1.478, 1.478, 1.478, 1.479, 1.479, 1.479, 1.479, 1.478, 1.478, 1.476, 1.475, 1.474, 1.472, 1.471, 1.47, 1.47, 1.47, 1.47, 1.47, 1.47, 1.471, 1.472, 1.472, 1.472, 1.472, 1.473, 1.473, 1.474, 1.474, 1.474, 1.474, 1.474, 1.474, 1.474, 1.474, 1.473, 1.472, 1.472, 1.472, 1.471, 1.47, 1.47, 1.47, 1.471, 1.471, 1.472, 1.472, 1.472, 1.472, 1.472, 1.472, 1.472, 1.473, 1.472, 1.472, 1.472, 1.472, 1.472, 1.472, 1.472, 1.472, 1.472, 1.472, 1.473, 1.474, 1.475, 1.476, 1.476, 1.477, 1.477, 1.477, 1.476, 1.475, 1.474, 1.473, 1.472, 1.471, 1.471, 1.468, 1.468, 1.466, 1.466, 1.466, 1.466, 1.466, 1.466, 1.466, 1.466, 1.466, 1.466
1.527, 1.528, 1.528, 1.528, 1.531, 1.532, 1.532, 1.533, 1.533, 1.533, 1.533, 1.532, 1.532, 1.531, 1.528, 1.528, 1.528, 1.527, 1.527, 1.526, 1.525, 1.525, 1.524, 1.524, 1.525, 1.525, 1.526, 1.526, 1.527, 1.528, 1.528, 1.527, 1.527, 1.526, 1.524, 1.524, 1.523, 1.52, 1.519, 1.518, 1.517, 1.516, 1.513, 1.513, 1.516, 1.517, 1.518, 1.519, 1.52, 1.521, 1.522, 1.521, 1.521, 1.52, 1.516, 1.516, 1.513, 1.513, 1.513, 1.513, 1.513, 1.516, 1.517, 1.518, 1.519, 1.52, 1.52, 1.52, 1.52, 1.52, 1.52, 1.52, 1.52, 1.52, 1.52, 1.52, 1.52, 1.519, 1.519, 1.518, 1.518, 1.518, 1.517, 1.517, 1.516, 1.516, 1.516, 1.516, 1.516, 1.516, 1.516, 1.516, 1.516, 1.516, 1.516, 1.517, 1.517, 1.518, 1.518, 1.518, 1.518, 1.517, 1.517, 1.516, 1.516, 1.516, 1.516, 1.512, 1.511, 1.509, 1.503, 1.493, 1.482, 1.47, 1.458, 1.448, 1.436, 1.423, 1.413, 1.406, 1.402, 1.4, 1.399, 1.397, 1.395, 1.393, 1.393, 1.393, 1.393, 1.393, 1.393, 1.393, 1.395, 1.397, 1.397, 1.4, 1.4, 1.402, 1.402, 1.402, 1.402, 1.402, 1.402, 1.402, 1.4, 1.4, 1.399, 1.397, 1.397, 1.395, 1.395, 1.393, 1.393, 1.393, 1.393, 1.393, 1.393, 1.393, 1.393, 1.395, 1.397, 1.399, 1.399, 1.399, 1.397, 1.397, 1.395, 1.393, 1.391, 1.39, 1.39, 1.388, 1.388, 1.388, 1.388, 1.388, 1.388, 1.388, 1.388, 1.388, 1.386, 1.386, 1.386, 1.384, 1.382, 1.382, 1.382, 1.382, 1.382, 1.382, 1.384, 1.384, 1.384, 1.384, 1.386, 1.386, 1.386, 1.386, 1.388, 1.386, 1.386, 1.386, 1.386, 1.386, 1.384, 1.382, 1.382, 1.382, 1.382, 1.382, 1.382, 1.382, 1.384, 1.386, 1.39, 1.39, 1.391, 1.391, 1.391, 1.39, 1.388, 1.388, 1.384, 1.384, 1.384, 1.384, 1.384, 1.384, 1.384, 1.384, 1.384, 1.384, 1.382, 1.382, 1.382, 1.382, 1.384, 1.384, 1.384, 1.384, 1.384, 1.384, 1.384, 1.384, 1.384, 1.384, 1.382, 1.382, 1.382, 1.382, 1.382, 1.384, 1.384, 1.384, 1.384, 1.384, 1.384, 1.384, 1.382, 1.382, 1.382, 1.382, 1.382, 1.384, 1.384, 1.386, 1.386, 1.386, 1.386, 1.386, 1.386, 1.386, 1.386, 1.384, 1.382, 1.381, 1.381, 1.379, 1.379, 1.379, 1.377, 1.377, 1.377, 1.377, 1.377, 1.377, 1.377, 1.377, 1.377, 1.377, 1.377, 1.377, 1.377, 1.377, 1.377, 1.377, 1.379, 1.379, 1.379, 1.381, 1.381, 1.381, 1.382, 1.382, 1.382, 1.382, 1.382, 1.382, 1.384, 1.384, 1.384, 1.384, 1.384, 1.384, 1.388, 1.395, 1.404, 1.413, 1.423, 1.434, 1.442, 1.454, 1.464, 1.47, 1.471, 1.472, 1.472, 1.472, 1.473, 1.474, 1.474, 1.475, 1.476, 1.477, 1.478, 1.479, 1.48, 1.479, 1.479, 1.477, 1.476, 1.475, 1.474, 1.472, 1.472, 1.472, 1.472, 1.472, 1.472, 1.473, 1.474, 1.475, 1.476, 1.477, 1.478, 1.478, 1.478, 1.478, 1.478, 1.478, 1.478, 1.478, 1.478, 1.477, 1.476, 1.474, 1.473, 1.472, 1.471, 1.47, 1.47, 1.47, 1.47, 1.47, 1.47, 1.47, 1.471, 1.472, 1.472, 1.472, 1.472, 1.473, 1.474, 1.474, 1.474, 1.474, 1.474, 1.474, 1.474, 1.474, 1.473, 1.472, 1.472, 1.472, 1.471, 1.47, 1.47, 1.47, 1.47, 1.471, 1.471, 1.471, 1.471, 1.471, 1.472, 1.472, 1.472, 1.472, 1.472, 1.472, 1.472, 1.472, 1.472, 1.472, 1.472, 1.472, 1.472, 1.472, 1.472, 1.473, 1.474, 1.475, 1.475, 1.476, 1.476, 1.476, 1.476, 1.475, 1.474, 1.473, 1.472, 1.471, 1.468, 1.468, 1.466, 1.466, 1.466, 1.466, 1.466, 1.464, 1.464, 1.466, 1.464, 1.464, 1.466
1.528, 1.528, 1.528, 1.528, 1.531, 1.532, 1.533, 1.533, 1.533, 1.533, 1.533, 1.533, 1.532, 1.531, 1.528, 1.528, 1.528, 1.527, 1.526, 1.526, 1.525, 1.524, 1.524, 1.524, 1.525, 1.526, 1.526, 1.527, 1.527, 1.528, 1.528, 1.528, 1.527, 1.526, 1.525, 1.524, 1.524, 1.521, 1.52, 1.518, 1.517, 1.516, 1.516, 1.516, 1.516, 1.517, 1.518, 1.519, 1.52, 1.521, 1.522, 1.521, 1.521, 1.52, 1.516, 1.516, 1.513, 1.513, 1.513, 1.513, 1.513, 1.516, 1.517, 1.518, 1.519, 1.52, 1.52, 1.52, 1.519, 1.519, 1.519, 1.519, 1.519, 1.519, 1.519, 1.519, 1.519, 1.518, 1.518, 1.518, 1.517, 1.517, 1.516, 1.516, 1.516, 1.516, 1.516, 1.516, 1.516, 1.516, 1.516, 1.516, 1.516, 1.517, 1.517, 1.517, 1.518, 1.518, 1.518, 1.518, 1.518, 1.517, 1.517, 1.516, 1.516, 1.516, 1.516, 1.512, 1.511, 1.51, 1.504, 1.494, 1.482, 1.471, 1.458, 1.448, 1.436, 1.423, 1.413, 1.406, 1.402, 1.4, 1.399, 1.397, 1.395, 1.393, 1.393, 1.393, 1.393, 1.393, 1.393, 1.393, 1.395, 1.397, 1.399, 1.4, 1.4, 1.402, 1.402, 1.402, 1.402, 1.402, 1.402, 1.402, 1.4, 1.4, 1.399, 1.399, 1.397, 1.397, 1.395, 1.393, 1.393, 1.393, 1.393, 1.393, 1.393, 1.393, 1.393, 1.395, 1.397, 1.399, 1.397, 1.397, 1.397, 1.395, 1.395, 1.393, 1.39, 1.39, 1.39, 1.388, 1.388, 1.388, 1.388, 1.39, 1.39, 1.39, 1.388, 1.388, 1.388, 1.386, 1.386, 1.384, 1.382, 1.382, 1.382, 1.382, 1.382, 1.382, 1.382, 1.384, 1.384, 1.384, 1.386, 1.386, 1.386, 1.386, 1.388, 1.386, 1.386, 1.386, 1.386, 1.384, 1.384, 1.382, 1.382, 1.382, 1.382, 1.382, 1.382, 1.382, 1.384, 1.386, 1.39, 1.391, 1.391, 1.391, 1.391, 1.391, 1.39, 1.388, 1.386, 1.384, 1.384, 1.384, 1.384, 1.384, 1.384, 1.384, 1.384, 1.384, 1.382, 1.382, 1.382, 1.382, 1.384, 1.384, 1.384, 1.384, 1.384, 1.384, 1.384, 1.384, 1.384, 1.382, 1.382, 1.382, 1.382, 1.382, 1.382, 1.384, 1.384, 1.384, 1.384, 1.384, 1.384, 1.384, 1.384, 1.382, 1.382, 1.382, 1.382, 1.384, 1.384, 1.386, 1.386, 1.386, 1.388, 1.388, 1.388, 1.386, 1.386, 1.384, 1.382, 1.381, 1.381, 1.379, 1.379, 1.379, 1.377, 1.377, 1.377, 1.377, 1.377, 1.377, 1.377, 1.377, 1.377, 1.377, 1.377, 1.377, 1.377, 1.377, 1.377, 1.377, 1.379, 1.379, 1.379, 1.381, 1.381, 1.381, 1.382, 1.382, 1.382, 1.382, 1.382, 1.382, 1.384, 1.384, 1.384, 1.384, 1.384, 1.384, 1.388, 1.395, 1.404, 1.413, 1.423, 1.434, 1.442, 1.454, 1.464, 1.47, 1.471, 1.472, 1.472, 1.472, 1.473, 1.473, 1.474, 1.475, 1.476, 1.477, 1.478, 1.479, 1.479, 1.479, 1.478, 1.477, 1.475, 1.474, 1.472, 1.471, 1.471, 1.471, 1.471, 1.471, 1.472, 1.472, 1.474, 1.474, 1.476, 1.477, 1.477, 1.478, 1.478, 1.478, 1.478, 1.478, 1.478, 1.477, 1.477, 1.476, 1.475, 1.474, 1.472, 1.471, 1.47, 1.47, 1.468, 1.468, 1.468, 1.47, 1.47, 1.47, 1.471, 1.472, 1.472, 1.472, 1.472, 1.473, 1.473, 1.474, 1.474, 1.474, 1.474, 1.474, 1.474, 1.474, 1.473, 1.472, 1.472, 1.472, 1.471, 1.471, 1.47, 1.47, 1.47, 1.47, 1.47, 1.47, 1.471, 1.471, 1.471, 1.471, 1.471, 1.471, 1.471, 1.471, 1.471, 1.471, 1.471, 1.471, 1.471, 1.471, 1.471, 1.471, 1.472, 1.473, 1.473, 1.474, 1.475, 1.475, 1.476, 1.476, 1.475, 1.474, 1.473, 1.472, 1.471, 1.471, 1.468, 1.468, 1.466, 1.464, 1.464, 1.464, 1.464, 1.464, 1.464, 1.464, 1.462, 1.462, 1.464
1.528, 1.528, 1.528, 1.528, 1.531, 1.532, 1.533, 1.533, 1.534, 1.534, 1.533, 1.533, 1.532, 1.532, 1.528, 1.528, 1.528, 1.527, 1.526, 1.526, 1.525, 1.524, 1.524, 1.524, 1.525, 1.526, 1.527, 1.527, 1.528, 1.528, 1.531, 1.528, 1.528, 1.527, 1.526, 1.524, 1.524, 1.522, 1.521, 1.519, 1.518, 1.517, 1.516, 1.516, 1.516, 1.517, 1.518, 1.52, 1.52, 1.521, 1.522, 1.521, 1.521, 1.52, 1.516, 1.516, 1.513, 1.513, 1.513, 1.513, 1.513, 1.516, 1.517, 1.518, 1.518, 1.519, 1.519, 1.519, 1.518, 1.518, 1.518, 1.518, 1.518, 1.518, 1.518, 1.518, 1.518, 1.518, 1.518, 1.517, 1.517, 1.516, 1.516, 1.516, 1.516, 1.516, 1.516, 1.516, 1.516, 1.516, 1.516, 1.517, 1.517, 1.517, 1.518, 1.518, 1.518, 1.518, 1.518, 1.517, 1.517, 1.517, 1.516, 1.516, 1.516, 1.516, 1.516, 1.512, 1.511, 1.51, 1.505, 1.495, 1.483, 1.472, 1.46, 1.448, 1.436, 1.425, 1.415, 1.408, 1.402, 1.4, 1.399, 1.397, 1.395, 1.393, 1.393, 1.393, 1.393, 1.393, 1.393, 1.393, 1.395, 1.397, 1.397, 1.399, 1.4, 1.402, 1.402, 1.402, 1.402, 1.402, 1.402, 1.402, 1.402, 1.4, 1.399, 1.399, 1.397, 1.397, 1.395, 1.395, 1.393, 1.393, 1.393, 1.393, 1.393, 1.393, 1.393, 1.395, 1.397, 1.397, 1.397, 1.397, 1.397, 1.395, 1.393, 1.393, 1.39, 1.39, 1.39, 1.388, 1.388, 1.39, 1.39, 1.39, 1.39, 1.39, 1.39, 1.39, 1.388, 1.386, 1.386, 1.384, 1.384, 1.382, 1.382, 1.382, 1.382, 1.382, 1.382, 1.384, 1.384, 1.384, 1.386, 1.386, 1.386, 1.388, 1.388, 1.386, 1.386, 1.386, 1.386, 1.384, 1.384, 1.382, 1.382, 1.382, 1.382, 1.382, 1.382, 1.382, 1.384, 1.386, 1.39, 1.391, 1.393, 1.391, 1.391, 1.391, 1.39, 1.388, 1.386, 1.384, 1.384, 1.384, 1.384, 1.384, 1.384, 1.384, 1.384, 1.384, 1.384, 1.382, 1.382, 1.382, 1.384, 1.384, 1.384, 1.384, 1.384, 1.382, 1.382, 1.382, 1.382, 1.382, 1.382, 1.382, 1.382, 1.382, 1.382, 1.382, 1.384, 1.384, 1.384, 1.384, 1.384, 1.384, 1.384, 1.384, 1.382, 1.382, 1.384, 1.384, 1.386, 1.386, 1.386, 1.386, 1.388, 1.388, 1.388, 1.386, 1.386, 1.384, 1.382, 1.381, 1.381, 1.379, 1.379, 1.379, 1.377, 1.377, 1.377, 1.377, 1.377, 1.377, 1.377, 1.377, 1.377, 1.377, 1.377, 1.377, 1.377, 1.377, 1.377, 1.377, 1.377, 1.379, 1.379, 1.379, 1.381, 1.381, 1.382, 1.382, 1.382, 1.382, 1.382, 1.384, 1.384, 1.384, 1.384, 1.384, 1.384, 1.384, 1.388, 1.395, 1.404, 1.413, 1.423, 1.432, 1.442, 1.454, 1.464, 1.471, 1.471, 1.472, 1.472, 1.472, 1.472, 1.473, 1.474, 1.475, 1.476, 1.476, 1.478, 1.478, 1.479, 1.478, 1.477, 1.476, 1.474, 1.473, 1.471, 1.471, 1.47, 1.47, 1.47, 1.47, 1.471, 1.472, 1.473, 1.474, 1.475, 1.476, 1.477, 1.477, 1.477, 1.477, 1.477, 1.476, 1.476, 1.476, 1.476, 1.475, 1.474, 1.473, 1.472, 1.471, 1.47, 1.468, 1.468, 1.468, 1.468, 1.468, 1.47, 1.47, 1.471, 1.472, 1.472, 1.472, 1.472, 1.472, 1.473, 1.474, 1.474, 1.474, 1.474, 1.474, 1.474, 1.474, 1.473, 1.472, 1.472, 1.472, 1.472, 1.471, 1.471, 1.47, 1.47, 1.47, 1.47, 1.47, 1.47, 1.47, 1.47, 1.47, 1.47, 1.47, 1.47, 1.47, 1.47, 1.47, 1.47, 1.47, 1.47, 1.47, 1.47, 1.471, 1.471, 1.472, 1.472, 1.473, 1.474, 1.474, 1.475, 1.475, 1.475, 1.474, 1.473, 1.472, 1.471, 1.468, 1.468, 1.466, 1.464, 1.464, 1.462, 1.462, 1.462, 1.462, 1.462, 1.462, 1.462, 1.462, 1.462
1.528, 1.528, 1.528, 1.528, 1.528, 1.532, 1.533, 1.533, 1.534, 1.534, 1.534, 1.533, 1.533, 1.532, 1.528, 1.528, 1.528, 1.527, 1.526, 1.526, 1.525, 1.524, 1.524, 1.525, 1.526, 1.526, 1.527, 1.528, 1.528, 1.531, 1.531, 1.531, 1.531, 1.528, 1.527, 1.524, 1.524, 1.523, 1.521, 1.52, 1.519, 1.518, 1.517, 1.516, 1.516, 1.517, 1.518, 1.52, 1.52, 1.522, 1.522, 1.521, 1.521, 1.52, 1.516, 1.516, 1.513, 1.513, 1.513, 1.513, 1.513, 1.516, 1.517, 1.517, 1.518, 1.519, 1.519, 1.518, 1.518, 1.518, 1.518, 1.518, 1.518, 1.518, 1.518, 1.518, 1.518, 1.517, 1.517, 1.517, 1.516, 1.516, 1.516, 1.516, 1.516, 1.516, 1.516, 1.516, 1.516, 1.516, 1.517, 1.517, 1.518, 1.518, 1.518, 1.518, 1.518, 1.518, 1.517, 1.517, 1.516, 1.516, 1.516, 1.516, 1.516, 1.516, 1.516, 1.512, 1.511, 1.51, 1.505, 1.496, 1.484, 1.472, 1.46, 1.45, 1.436, 1.425, 1.415, 1.408, 1.404, 1.4, 1.399, 1.397, 1.395, 1.395, 1.393, 1.393, 1.393, 1.393, 1.393, 1.393, 1.395, 1.397, 1.397, 1.399, 1.4, 1.4, 1.402, 1.402, 1.402, 1.402, 1.402, 1.402, 1.402, 1.4, 1.399, 1.399, 1.399, 1.397, 1.397, 1.395, 1.395, 1.395, 1.395, 1.395, 1.395, 1.395, 1.395, 1.395, 1.397, 1.397, 1.397, 1.397, 1.395, 1.393, 1.393, 1.391, 1.39, 1.39, 1.39, 1.39, 1.39, 1.39, 1.39, 1.39, 1.39, 1.39, 1.39, 1.39, 1.39, 1.388, 1.386, 1.386, 1.384, 1.382, 1.382, 1.382, 1.382, 1.382, 1.382, 1.384, 1.384, 1.384, 1.386, 1.386, 1.386, 1.388, 1.388, 1.386, 1.386, 1.386, 1.386, 1.384, 1.384, 1.382, 1.382, 1.382, 1.382, 1.382, 1.382, 1.382, 1.384, 1.386, 1.39, 1.391, 1.393, 1.391, 1.391, 1.391, 1.39, 1.388, 1.386, 1.384, 1.384, 1.384, 1.384, 1.384, 1.384, 1.384, 1.384, 1.384, 1.384, 1.384, 1.384, 1.384, 1.384, 1.384, 1.384, 1.384, 1.382, 1.382, 1.382, 1.382, 1.382, 1.382, 1.382, 1.382, 1.382, 1.382, 1.382, 1.382, 1.384, 1.384, 1.384, 1.384, 1.384, 1.384, 1.384, 1.384, 1.384, 1.384, 1.384, 1.384, 1.386, 1.386, 1.386, 1.386, 1.388, 1.388, 1.388, 1.386, 1.386, 1.384, 1.382, 1.381, 1.381, 1.379, 1.379, 1.379, 1.377, 1.377, 1.377, 1.377, 1.377, 1.377, 1.377, 1.377, 1.377, 1.377, 1.377, 1.377, 1.377, 1.377, 1.377, 1.377, 1.377, 1.379, 1.379, 1.379, 1.379, 1.381, 1.381, 1.382, 1.382, 1.382, 1.382, 1.382, 1.384, 1.384, 1.384, 1.384, 1.384, 1.384, 1.388, 1.395, 1.404, 1.413, 1.423, 1.432, 1.442, 1.454, 1.464, 1.471, 1.471, 1.472, 1.472, 1.472, 1.472, 1.473, 1.474, 1.474, 1.476, 1.476, 1.477, 1.478, 1.478, 1.478, 1.477, 1.476, 1.474, 1.472, 1.471, 1.47, 1.468, 1.468, 1.468, 1.47, 1.471, 1.472, 1.473, 1.474, 1.475, 1.476, 1.476, 1.476, 1.476, 1.476, 1.476, 1.476, 1.476, 1.476, 1.475, 1.474, 1.473, 1.472, 1.471, 1.47, 1.468, 1.468, 1.468, 1.468, 1.468, 1.468, 1.47, 1.47, 1.47, 1.471, 1.472, 1.472, 1.472, 1.472, 1.473, 1.474, 1.474, 1.474, 1.474, 1.474, 1.474, 1.474, 1.473, 1.473, 1.472, 1.472, 1.472, 1.472, 1.471, 1.47, 1.47, 1.47, 1.468, 1.468, 1.468, 1.468, 1.468, 1.47, 1.47, 1.47, 1.47, 1.47, 1.47, 1.47, 1.47, 1.47, 1.468, 1.468, 1.468, 1.468, 1.471, 1.471, 1.472, 1.472, 1.473, 1.473, 1.474, 1.474, 1.474, 1.473, 1.472, 1.471, 1.471, 1.468, 1.468, 1.466, 1.464, 1.462, 1.462, 1.462, 1.462, 1.46, 1.46, 1.46, 1.46, 1.46, 1.46
1.528, 1.528, 1.528, 1.528, 1.528, 1.532, 1.533, 1.533, 1.534, 1.535, 1.534, 1.533, 1.533, 1.532, 1.528, 1.528, 1.528, 1.527, 1.526, 1.525, 1.525, 1.524, 1.524, 1.525, 1.526, 1.526, 1.527, 1.528, 1.528, 1.531, 1.531, 1.531, 1.531, 1.528, 1.528, 1.525, 1.524, 1.523, 1.522, 1.52, 1.519, 1.518, 1.517, 1.517, 1.517, 1.518, 1.519, 1.52, 1.521, 1.522, 1.522, 1.522, 1.521, 1.52, 1.517, 1.517, 1.513, 1.513, 1.513, 1.513, 1.513, 1.516, 1.516, 1.517, 1.518, 1.518, 1.518, 1.518, 1.518, 1.517, 1.517, 1.517, 1.517, 1.517, 1.517, 1.517, 1.517, 1.517, 1.516, 1.516, 1.516, 1.516, 1.513, 1.513, 1.513, 1.513, 1.516, 1.516, 1.516, 1.516, 1.517, 1.518, 1.518, 1.518, 1.518, 1.518, 1.518, 1.518, 1.517, 1.516, 1.516, 1.516, 1.516, 1.516, 1.516, 1.516, 1.516, 1.512, 1.511, 1.51, 1.506, 1.496, 1.485, 1.474, 1.462, 1.45, 1.436, 1.425, 1.415, 1.41, 1.404, 1.4, 1.399, 1.397, 1.395, 1.395, 1.393, 1.393, 1.393, 1.393, 1.393, 1.393, 1.395, 1.397, 1.397, 1.399, 1.4, 1.4, 1.402, 1.402, 1.402, 1.402, 1.402, 1.402, 1.4, 1.4, 1.399, 1.399, 1.399, 1.397, 1.397, 1.395, 1.395, 1.395, 1.395, 1.395, 1.395, 1.395, 1.395, 1.395, 1.397, 1.397, 1.397, 1.395, 1.395, 1.393, 1.393, 1.391, 1.39, 1.388, 1.388, 1.388, 1.388, 1.39, 1.39, 1.39, 1.39, 1.39, 1.39, 1.39, 1.39, 1.388, 1.386, 1.386, 1.384, 1.382, 1.382, 1.382, 1.382, 1.382, 1.382, 1.384, 1.384, 1.384, 1.386, 1.386, 1.386, 1.388, 1.388, 1.386, 1.386, 1.386, 1.386, 1.384, 1.384, 1.382, 1.382, 1.382, 1.382, 1.382, 1.382, 1.382, 1.384, 1.386, 1.39, 1.391, 1.391, 1.391, 1.391, 1.391, 1.39, 1.388, 1.386, 1.384, 1.384, 1.384, 1.384, 1.384, 1.384, 1.384, 1.384, 1.384, 1.384, 1.384, 1.384, 1.384, 1.384, 1.384, 1.384, 1.384, 1.382, 1.382, 1.382, 1.382, 1.382, 1.382, 1.382, 1.382, 1.382, 1.382, 1.382, 1.382, 1.384, 1.384, 1.384, 1.384, 1.384, 1.384, 1.384, 1.384, 1.384, 1.384, 1.384, 1.384, 1.386, 1.386, 1.386, 1.386, 1.388, 1.388, 1.388, 1.386, 1.386, 1.384, 1.382, 1.381, 1.381, 1.379, 1.379, 1.377, 1.377, 1.377, 1.377, 1.377, 1.377, 1.377, 1.377, 1.377, 1.377, 1.377, 1.377, 1.377, 1.377, 1.377, 1.377, 1.377, 1.379, 1.379, 1.379, 1.379, 1.379, 1.381, 1.381, 1.382, 1.382, 1.382, 1.382, 1.382, 1.384, 1.384, 1.384, 1.384, 1.384, 1.384, 1.388, 1.395, 1.404, 1.413, 1.423, 1.432, 1.442, 1.454, 1.464, 1.471, 1.471, 1.472, 1.472, 1.472, 1.472, 1.473, 1.474, 1.474, 1.476, 1.476, 1.477, 1.478, 1.478, 1.478, 1.476, 1.475, 1.474, 1.472, 1.471, 1.468, 1.468, 1.468, 1.468, 1.47, 1.471, 1.472, 1.473, 1.474, 1.475, 1.475, 1.476, 1.476, 1.476, 1.475, 1.475, 1.475, 1.475, 1.475, 1.474, 1.473, 1.472, 1.471, 1.471, 1.47, 1.468, 1.468, 1.468, 1.468, 1.468, 1.469, 1.47, 1.47, 1.47, 1.471, 1.472, 1.472, 1.472, 1.473, 1.473, 1.474, 1.474, 1.474, 1.474, 1.474, 1.474, 1.474, 1.474, 1.473, 1.473, 1.473, 1.472, 1.472, 1.471, 1.47, 1.47, 1.468, 1.468, 1.468, 1.468, 1.468, 1.468, 1.47, 1.47, 1.47, 1.47, 1.47, 1.47, 1.47, 1.47, 1.468, 1.468, 1.468, 1.468, 1.468, 1.468, 1.47, 1.471, 1.471, 1.472, 1.473, 1.473, 1.473, 1.473, 1.472, 1.472, 1.471, 1.468, 1.468, 1.466, 1.464, 1.464, 1.462, 1.462, 1.46, 1.46, 1.458, 1.458, 1.458, 1.458, 1.458, 1.458
1.528, 1.528, 1.528, 1.528, 1.528, 1.532, 1.533, 1.533, 1.534, 1.535, 1.534, 1.533, 1.533, 1.532, 1.531, 1.528, 1.528, 1.527, 1.526, 1.525, 1.524, 1.524, 1.524, 1.524, 1.525, 1.526, 1.527, 1.528, 1.531, 1.531, 1.531, 1.531, 1.531, 1.528, 1.527, 1.526, 1.524, 1.523, 1.522, 1.521, 1.52, 1.519, 1.518, 1.518, 1.518, 1.519, 1.52, 1.52, 1.522, 1.523, 1.523, 1.522, 1.521, 1.52, 1.518, 1.517, 1.516, 1.513, 1.513, 1.513, 1.516, 1.516, 1.516, 1.517, 1.518, 1.518, 1.518, 1.518, 1.518, 1.517, 1.516, 1.516, 1.516, 1.516, 1.517, 1.516, 1.516, 1.516, 1.516, 1.516, 1.513, 1.513, 1.513, 1.513, 1.513, 1.513, 1.513, 1.513, 1.516, 1.517, 1.517, 1.518, 1.519, 1.519, 1.519, 1.519, 1.518, 1.518, 1.517, 1.516, 1.516, 1.516, 1.516, 1.516, 1.516, 1.516, 1.516, 1.513, 1.512, 1.509, 1.507, 1.496, 1.486, 1.474, 1.462, 1.45, 1.438, 1.427, 1.415, 1.41, 1.404, 1.402, 1.4, 1.399, 1.397, 1.395, 1.395, 1.393, 1.393, 1.393, 1.393, 1.395, 1.395, 1.397, 1.397, 1.399, 1.4, 1.4, 1.402, 1.402, 1.402, 1.402, 1.402, 1.402, 1.4, 1.4, 1.399, 1.399, 1.399, 1.397, 1.397, 1.397, 1.395, 1.395, 1.395, 1.395, 1.395, 1.395, 1.395, 1.395, 1.397, 1.397, 1.397, 1.395, 1.393, 1.393, 1.391, 1.39, 1.39, 1.388, 1.388, 1.388, 1.388, 1.388, 1.39, 1.39, 1.39, 1.39, 1.39, 1.39, 1.39, 1.388, 1.386, 1.386, 1.384, 1.382, 1.382, 1.382, 1.382, 1.382, 1.382, 1.384, 1.384, 1.384, 1.386, 1.386, 1.388, 1.388, 1.388, 1.388, 1.386, 1.386, 1.386, 1.384, 1.384, 1.382, 1.382, 1.382, 1.382, 1.382, 1.382, 1.382, 1.384, 1.386, 1.39, 1.39, 1.391, 1.391, 1.391, 1.391, 1.39, 1.388, 1.386, 1.384, 1.384, 1.384, 1.384, 1.384, 1.384, 1.384, 1.384, 1.384, 1.384, 1.384, 1.384, 1.384, 1.384, 1.384, 1.384, 1.384, 1.384, 1.382, 1.382, 1.382, 1.382, 1.382, 1.382, 1.382, 1.382, 1.382, 1.382, 1.384, 1.384, 1.384, 1.384, 1.384, 1.384, 1.384, 1.384, 1.384, 1.384, 1.384, 1.384, 1.384, 1.386, 1.386, 1.386, 1.386, 1.388, 1.388, 1.388, 1.386, 1.386, 1.384, 1.382, 1.381, 1.381, 1.379, 1.379, 1.377, 1.377, 1.377, 1.377, 1.377, 1.377, 1.377, 1.377, 1.377, 1.377, 1.377, 1.377, 1.377, 1.377, 1.377, 1.377, 1.377, 1.379, 1.379, 1.379, 1.379, 1.379, 1.381, 1.381, 1.382, 1.382, 1.382, 1.382, 1.382, 1.384, 1.384, 1.384, 1.384, 1.384, 1.384, 1.39, 1.395, 1.404, 1.413, 1.425, 1.434, 1.444, 1.454, 1.464, 1.471, 1.472, 1.472, 1.472, 1.472, 1.472, 1.473, 1.474, 1.474, 1.475, 1.476, 1.477, 1.478, 1.478, 1.477, 1.476, 1.475, 1.473, 1.472, 1.471, 1.468, 1.468, 1.468, 1.468, 1.47, 1.471, 1.472, 1.472, 1.474, 1.474, 1.475, 1.475, 1.475, 1.475, 1.475, 1.474, 1.474, 1.474, 1.474, 1.473, 1.473, 1.472, 1.471, 1.47, 1.468, 1.468, 1.468, 1.468, 1.468, 1.468, 1.469, 1.47, 1.47, 1.47, 1.471, 1.472, 1.472, 1.472, 1.473, 1.474, 1.474, 1.474, 1.474, 1.474, 1.474, 1.474, 1.474, 1.474, 1.474, 1.474, 1.473, 1.472, 1.472, 1.471, 1.47, 1.47, 1.468, 1.468, 1.468, 1.468, 1.468, 1.468, 1.468, 1.47, 1.47, 1.47, 1.47, 1.47, 1.47, 1.468, 1.468, 1.468, 1.468, 1.468, 1.468, 1.468, 1.468, 1.468, 1.471, 1.471, 1.472, 1.472, 1.472, 1.472, 1.471, 1.471, 1.47, 1.468, 1.466, 1.466, 1.464, 1.462, 1.462, 1.46, 1.458, 1.458, 1.458, 1.458, 1.456, 1.456, 1.456, 1.456
1.528, 1.528, 1.528, 1.528, 1.528, 1.532, 1.533, 1.533, 1.534, 1.534, 1.534, 1.533, 1.533, 1.532, 1.531, 1.528, 1.528, 1.527, 1.526, 1.525, 1.524, 1.524, 1.524, 1.524, 1.525, 1.526, 1.527, 1.528, 1.531, 1.531, 1.531, 1.531, 1.531, 1.528, 1.527, 1.526, 1.524, 1.523, 1.522, 1.521, 1.52, 1.519, 1.519, 1.519, 1.519, 1.519, 1.52, 1.521, 1.522, 1.523, 1.523, 1.522, 1.521, 1.52, 1.518, 1.517, 1.516, 1.513, 1.513, 1.513, 1.516, 1.516, 1.516, 1.517, 1.517, 1.518, 1.518, 1.518, 1.518, 1.517, 1.516, 1.516, 1.516, 1.516, 1.516, 1.516, 1.516, 1.516, 1.516, 1.513, 1.513, 1.512, 1.512, 1.512, 1.512, 1.512, 1.513, 1.513, 1.516, 1.517, 1.518, 1.518, 1.519, 1.52, 1.52, 1.519, 1.518, 1.517, 1.516, 1.516, 1.516, 1.513, 1.513, 1.513, 1.513, 1.513, 1.513, 1.513, 1.513, 1.509, 1.508, 1.5, 1.488, 1.476, 1.464, 1.452, 1.44, 1.427, 1.417, 1.41, 1.406, 1.402, 1.4, 1.399, 1.397, 1.395, 1.395, 1.393, 1.393, 1.393, 1.393, 1.395, 1.395, 1.397, 1.397, 1.399, 1.4, 1.4, 1.4, 1.402, 1.402, 1.402, 1.402, 1.402, 1.4, 1.4, 1.399, 1.399, 1.399, 1.397, 1.397, 1.397, 1.397, 1.395, 1.395, 1.395, 1.395, 1.395, 1.395, 1.395, 1.397, 1.397, 1.395, 1.395, 1.393, 1.393, 1.391, 1.39, 1.39, 1.388, 1.388, 1.388, 1.388, 1.388, 1.39, 1.39, 1.39, 1.39, 1.39, 1.39, 1.39, 1.388, 1.386, 1.386, 1.384, 1.382, 1.382, 1.382, 1.382, 1.382, 1.382, 1.384, 1.386, 1.386, 1.386, 1.386, 1.388, 1.388, 1.388, 1.388, 1.386, 1.386, 1.386, 1.384, 1.384, 1.382, 1.382, 1.382, 1.382, 1.382, 1.382, 1.382, 1.384, 1.386, 1.388, 1.39, 1.391, 1.391, 1.391, 1.391, 1.39, 1.388, 1.386, 1.384, 1.384, 1.384, 1.384, 1.384, 1.384, 1.384, 1.384, 1.384, 1.384, 1.384, 1.384, 1.384, 1.384, 1.384, 1.384, 1.384, 1.384, 1.382, 1.382, 1.382, 1.382, 1.382, 1.382, 1.382, 1.382, 1.382, 1.382, 1.384, 1.384, 1.384, 1.384, 1.384, 1.384, 1.384, 1.384, 1.384, 1.384, 1.384, 1.384, 1.384, 1.384, 1.386, 1.386, 1.386, 1.386, 1.388, 1.388, 1.386, 1.386, 1.384, 1.382, 1.381, 1.381, 1.379, 1.379, 1.379, 1.377, 1.377, 1.377, 1.377, 1.377, 1.377, 1.377, 1.377, 1.377, 1.377, 1.377, 1.377, 1.377, 1.377, 1.377, 1.377, 1.379, 1.379, 1.379, 1.381, 1.381, 1.381, 1.382, 1.382, 1.382, 1.382, 1.382, 1.382, 1.384, 1.384, 1.384, 1.384, 1.384, 1.384, 1.39, 1.397, 1.406, 1.415, 1.425, 1.434, 1.444, 1.454, 1.466, 1.471, 1.472, 1.472, 1.472, 1.472, 1.472, 1.472, 1.473, 1.474, 1.475, 1.476, 1.477, 1.477, 1.478, 1.477, 1.476, 1.474, 1.473, 1.471, 1.47, 1.468, 1.468, 1.468, 1.468, 1.47, 1.471, 1.472, 1.472, 1.474, 1.474, 1.474, 1.474, 1.474, 1.474, 1.474, 1.474, 1.474, 1.474, 1.473, 1.473, 1.472, 1.471, 1.47, 1.47, 1.468, 1.468, 1.468, 1.468, 1.468, 1.468, 1.469, 1.47, 1.47, 1.47, 1.471, 1.472, 1.472, 1.472, 1.473, 1.474, 1.474, 1.474, 1.474, 1.474, 1.474, 1.474, 1.474, 1.474, 1.474, 1.474, 1.473, 1.473, 1.472, 1.471, 1.47, 1.47, 1.469, 1.468, 1.468, 1.468, 1.468, 1.468, 1.468, 1.47, 1.47, 1.47, 1.47, 1.47, 1.47, 1.468, 1.468, 1.468, 1.468, 1.466, 1.466, 1.466, 1.468, 1.468, 1.468, 1.471, 1.471, 1.471, 1.471, 1.471, 1.471, 1.47, 1.468, 1.466, 1.466, 1.464, 1.462, 1.462, 1.46, 1.458, 1.458, 1.456, 1.456, 1.454, 1.454, 1.454, 1.454, 1.454
1.528, 1.528, 1.528, 1.528, 1.528, 1.532, 1.533, 1.533, 1.534, 1.534, 1.533, 1.533, 1.533, 1.532, 1.531, 1.528, 1.528, 1.527, 1.526, 1.525, 1.524, 1.524, 1.524, 1.524, 1.525, 1.526, 1.527, 1.528, 1.531, 1.531, 1.531, 1.531, 1.531, 1.528, 1.528, 1.525, 1.524, 1.523, 1.522, 1.521, 1.52, 1.52, 1.52, 1.52, 1.52, 1.52, 1.521, 1.522, 1.523, 1.524, 1.524, 1.523, 1.522, 1.52, 1.519, 1.517, 1.516, 1.513, 1.513, 1.513, 1.516, 1.516, 1.516, 1.516, 1.517, 1.518, 1.518, 1.518, 1.517, 1.517, 1.516, 1.516, 1.516, 1.516, 1.516, 1.516, 1.516, 1.516, 1.516, 1.513, 1.512, 1.512, 1.511, 1.511, 1.511, 1.512, 1.512, 1.513, 1.516, 1.517, 1.518, 1.518, 1.519, 1.52, 1.52, 1.519, 1.518, 1.517, 1.516, 1.516, 1.513, 1.513, 1.513, 1.513, 1.513, 1.513, 1.513, 1.513, 1.513, 1.509, 1.509, 1.501, 1.49, 1.477, 1.466, 1.454, 1.442, 1.43, 1.419, 1.412, 1.406, 1.402, 1.4, 1.399, 1.397, 1.395, 1.395, 1.395, 1.393, 1.393, 1.393, 1.395, 1.397, 1.397, 1.397, 1.399, 1.4, 1.4, 1.4, 1.402, 1.402, 1.402, 1.402, 1.4, 1.4, 1.4, 1.399, 1.399, 1.399, 1.397, 1.397, 1.397, 1.397, 1.397, 1.397, 1.397, 1.397, 1.397, 1.395, 1.395, 1.397, 1.397, 1.395, 1.395, 1.393, 1.393, 1.391, 1.39, 1.39, 1.388, 1.388, 1.388, 1.388, 1.388, 1.39, 1.39, 1.39, 1.39, 1.39, 1.39, 1.39, 1.39, 1.386, 1.386, 1.384, 1.384, 1.382, 1.382, 1.382, 1.382, 1.382, 1.384, 1.386, 1.386, 1.386, 1.388, 1.388, 1.39, 1.39, 1.388, 1.386, 1.386, 1.386, 1.384, 1.384, 1.382, 1.382, 1.382, 1.382, 1.382, 1.382, 1.382, 1.382, 1.386, 1.388, 1.39, 1.39, 1.39, 1.39, 1.39, 1.39, 1.388, 1.386, 1.384, 1.384, 1.384, 1.384, 1.384, 1.384, 1.384, 1.384, 1.384, 1.384, 1.384, 1.384, 1.384, 1.384, 1.384, 1.386, 1.384, 1.384, 1.384, 1.384, 1.384, 1.382, 1.382, 1.382, 1.382, 1.382, 1.382, 1.384, 1.384, 1.384, 1.384, 1.384, 1.384, 1.386, 1.384, 1.384, 1.384, 1.384, 1.384, 1.384, 1.384, 1.384, 1.384, 1.386, 1.386, 1.386, 1.386, 1.386, 1.386, 1.386, 1.384, 1.382, 1.381, 1.381, 1.381, 1.379, 1.379, 1.379, 1.379, 1.379, 1.379, 1.379, 1.379, 1.379, 1.379, 1.379, 1.379, 1.379, 1.379, 1.379, 1.379, 1.379, 1.379, 1.379, 1.379, 1.381, 1.381, 1.381, 1.381, 1.382, 1.382, 1.382, 1.382, 1.382, 1.382, 1.382, 1.382, 1.382, 1.384, 1.384, 1.384, 1.39, 1.397, 1.406, 1.415, 1.425, 1.436, 1.446, 1.456, 1.466, 1.471, 1.472, 1.473, 1.473, 1.472, 1.472, 1.472, 1.473, 1.474, 1.475, 1.476, 1.476, 1.477, 1.478, 1.477, 1.476, 1.474, 1.472, 1.471, 1.47, 1.468, 1.468, 1.468, 1.468, 1.47, 1.471, 1.472, 1.473, 1.474, 1.474, 1.474, 1.474, 1.474, 1.474, 1.474, 1.473, 1.473, 1.473, 1.472, 1.472, 1.471, 1.471, 1.47, 1.47, 1.468, 1.468, 1.468, 1.468, 1.468, 1.468, 1.469, 1.47, 1.47, 1.47, 1.471, 1.472, 1.472, 1.472, 1.473, 1.474, 1.474, 1.474, 1.474, 1.474, 1.475, 1.475, 1.474, 1.474, 1.474, 1.474, 1.474, 1.473, 1.472, 1.471, 1.47, 1.47, 1.469, 1.468, 1.468, 1.468, 1.468, 1.468, 1.468, 1.47, 1.47, 1.47, 1.47, 1.47, 1.47, 1.468, 1.468, 1.466, 1.466, 1.466, 1.466, 1.466, 1.466, 1.468, 1.468, 1.468, 1.47, 1.47, 1.47, 1.47, 1.47, 1.47, 1.468, 1.466, 1.466, 1.462, 1.462, 1.46, 1.458, 1.458, 1.456, 1.454, 1.454, 1.454, 1.454, 1.452, 1.452, 1.454
1.528, 1.528, 1.528, 1.528, 1.531, 1.532, 1.533, 1.533, 1.534, 1.534, 1.533, 1.533, 1.532, 1.531, 1.531, 1.528, 1.528, 1.527, 1.526, 1.525, 1.525, 1.524, 1.524, 1.524, 1.525, 1.526, 1.527, 1.528, 1.531, 1.531, 1.531, 1.531, 1.531, 1.528, 1.528, 1.524, 1.524, 1.523, 1.522, 1.521, 1.52, 1.52, 1.52, 1.52, 1.52, 1.521, 1.522, 1.523, 1.524, 1.524, 1.524, 1.523, 1.522, 1.521, 1.519, 1.518, 1.517, 1.516, 1.513, 1.513, 1.513, 1.516, 1.516, 1.516, 1.517, 1.518, 1.518, 1.518, 1.518, 1.517, 1.516, 1.516, 1.516, 1.516, 1.516, 1.516, 1.516, 1.516, 1.513, 1.512, 1.511, 1.511, 1.511, 1.511, 1.511, 1.511, 1.512, 1.512, 1.516, 1.517, 1.518, 1.519, 1.52, 1.52, 1.52, 1.519, 1.518, 1.517, 1.516, 1.516, 1.513, 1.512, 1.512, 1.512, 1.512, 1.513, 1.513, 1.513, 1.513, 1.509, 1.509, 1.503, 1.492, 1.482, 1.468, 1.456, 1.444, 1.432, 1.423, 1.412, 1.408, 1.404, 1.4, 1.4, 1.397, 1.397, 1.395, 1.395, 1.395, 1.395, 1.395, 1.395, 1.397, 1.397, 1.397, 1.399, 1.4, 1.4, 1.4, 1.402, 1.402, 1.402, 1.4, 1.4, 1.4, 1.4, 1.399, 1.399, 1.397, 1.397, 1.397, 1.397, 1.397, 1.397, 1.397, 1.397, 1.397, 1.397, 1.395, 1.395, 1.397, 1.397, 1.395, 1.395, 1.393, 1.393, 1.391, 1.39, 1.39, 1.388, 1.388, 1.388, 1.388, 1.388, 1.39, 1.39, 1.39, 1.39, 1.39, 1.39, 1.39, 1.39, 1.388, 1.386, 1.386, 1.384, 1.382, 1.382, 1.382, 1.382, 1.384, 1.384, 1.386, 1.386, 1.386, 1.388, 1.388, 1.39, 1.39, 1.388, 1.386, 1.386, 1.386, 1.384, 1.384, 1.382, 1.382, 1.382, 1.382, 1.382, 1.382, 1.382, 1.382, 1.386, 1.386, 1.39, 1.39, 1.39, 1.39, 1.39, 1.39, 1.388, 1.386, 1.384, 1.384, 1.384, 1.384, 1.384, 1.384, 1.384, 1.384, 1.384, 1.384, 1.384, 1.384, 1.384, 1.386, 1.386, 1.386, 1.386, 1.386, 1.386, 1.384, 1.384, 1.384, 1.384, 1.382, 1.382, 1.384, 1.384, 1.384, 1.384, 1.384, 1.384, 1.384, 1.386, 1.386, 1.384, 1.384, 1.384, 1.384, 1.384, 1.384, 1.384, 1.384, 1.384, 1.384, 1.386, 1.386, 1.386, 1.386, 1.386, 1.386, 1.384, 1.382, 1.381, 1.381, 1.381, 1.379, 1.379, 1.379, 1.379, 1.379, 1.379, 1.379, 1.379, 1.379, 1.379, 1.379, 1.379, 1.379, 1.379, 1.379, 1.379, 1.379, 1.379, 1.379, 1.381, 1.381, 1.381, 1.381, 1.381, 1.382, 1.382, 1.382, 1.382, 1.382, 1.382, 1.382, 1.382, 1.382, 1.382, 1.384, 1.384, 1.39, 1.397, 1.406, 1.415, 1.425, 1.436, 1.446, 1.456, 1.466, 1.472, 1.473, 1.473, 1.473, 1.472, 1.472, 1.472, 1.473, 1.474, 1.474, 1.476, 1.476, 1.477, 1.477, 1.477, 1.476, 1.474, 1.473, 1.472, 1.471, 1.47, 1.47, 1.47, 1.47, 1.471, 1.472, 1.472, 1.473, 1.474, 1.474, 1.474, 1.474, 1.474, 1.474, 1.473, 1.473, 1.472, 1.472, 1.472, 1.472, 1.471, 1.47, 1.47, 1.47, 1.468, 1.468, 1.468, 1.468, 1.468, 1.468, 1.469, 1.47, 1.47, 1.47, 1.471, 1.472, 1.472, 1.472, 1.473, 1.474, 1.474, 1.475, 1.475, 1.475, 1.475, 1.475, 1.475, 1.475, 1.475, 1.474, 1.474, 1.473, 1.472, 1.471, 1.47, 1.47, 1.469, 1.468, 1.468, 1.468, 1.468, 1.468, 1.469, 1.469, 1.47, 1.47, 1.47, 1.47, 1.47, 1.468, 1.468, 1.466, 1.466, 1.466, 1.466, 1.466, 1.466, 1.466, 1.466, 1.468, 1.47, 1.47, 1.47, 1.47, 1.47, 1.468, 1.466, 1.466, 1.464, 1.462, 1.46, 1.458, 1.458, 1.456, 1.454, 1.454, 1.452, 1.452, 1.452, 1.45, 1.45, 1.452
1.531, 1.531, 1.531, 1.531, 1.531, 1.532, 1.533, 1.533, 1.534, 1.534, 1.533, 1.533, 1.532, 1.531, 1.531, 1.528, 1.528, 1.527, 1.526, 1.526, 1.525, 1.524, 1.524, 1.525, 1.525, 1.526, 1.527, 1.528, 1.531, 1.531, 1.531, 1.531, 1.528, 1.528, 1.527, 1.524, 1.524, 1.523, 1.522, 1.522, 1.521, 1.52, 1.521, 1.521, 1.521, 1.522, 1.523, 1.524, 1.524, 1.525, 1.525, 1.524, 1.523, 1.521, 1.52, 1.518, 1.517, 1.516, 1.513, 1.513, 1.513, 1.516, 1.516, 1.516, 1.517, 1.518, 1.518, 1.518, 1.518, 1.517, 1.516, 1.516, 1.516, 1.516, 1.516, 1.516, 1.516, 1.513, 1.512, 1.512, 1.511, 1.51, 1.51, 1.51, 1.51, 1.51, 1.511, 1.512, 1.512, 1.517, 1.518, 1.519, 1.52, 1.52, 1.52, 1.519, 1.518, 1.517, 1.516, 1.513, 1.512, 1.512, 1.511, 1.511, 1.512, 1.512, 1.513, 1.513, 1.513, 1.51, 1.51, 1.504, 1.494, 1.482, 1.471, 1.458, 1.446, 1.434, 1.423, 1.413, 1.408, 1.404, 1.4, 1.4, 1.399, 1.397, 1.395, 1.395, 1.395, 1.395, 1.395, 1.395, 1.397, 1.397, 1.399, 1.4, 1.4, 1.4, 1.4, 1.402, 1.402, 1.402, 1.4, 1.4, 1.4, 1.399, 1.399, 1.399, 1.397, 1.397, 1.397, 1.397, 1.397, 1.397, 1.397, 1.397, 1.397, 1.395, 1.395, 1.395, 1.395, 1.395, 1.395, 1.395, 1.393, 1.393, 1.391, 1.39, 1.39, 1.388, 1.388, 1.388, 1.388, 1.388, 1.388, 1.39, 1.39, 1.39, 1.39, 1.39, 1.39, 1.39, 1.388, 1.386, 1.386, 1.384, 1.382, 1.382, 1.382, 1.382, 1.384, 1.386, 1.386, 1.386, 1.386, 1.388, 1.39, 1.39, 1.39, 1.388, 1.388, 1.386, 1.386, 1.384, 1.384, 1.382, 1.382, 1.382, 1.382, 1.382, 1.382, 1.382, 1.382, 1.386, 1.386, 1.388, 1.39, 1.39, 1.39, 1.39, 1.388, 1.388, 1.386, 1.384, 1.384, 1.384, 1.384, 1.384, 1.384, 1.384, 1.384, 1.384, 1.384, 1.386, 1.386, 1.386, 1.386, 1.386, 1.386, 1.386, 1.386, 1.386, 1.386, 1.386, 1.386, 1.384, 1.384, 1.384, 1.384, 1.384, 1.386, 1.386, 1.386, 1.386, 1.386, 1.386, 1.386, 1.386, 1.386, 1.384, 1.384, 1.384, 1.384, 1.384, 1.384, 1.384, 1.384, 1.384, 1.386, 1.386, 1.386, 1.386, 1.384, 1.384, 1.382, 1.381, 1.381, 1.381, 1.381, 1.381, 1.381, 1.381, 1.381, 1.381, 1.381, 1.381, 1.381, 1.381, 1.381, 1.381, 1.379, 1.379, 1.379, 1.379, 1.379, 1.379, 1.381, 1.381, 1.381, 1.381, 1.381, 1.381, 1.382, 1.382, 1.382, 1.382, 1.382, 1.382, 1.382, 1.382, 1.382, 1.382, 1.382, 1.384, 1.388, 1.397, 1.406, 1.415, 1.425, 1.436, 1.446, 1.456, 1.468, 1.472, 1.473, 1.474, 1.473, 1.473, 1.472, 1.472, 1.473, 1.474, 1.474, 1.475, 1.476, 1.476, 1.477, 1.476, 1.476, 1.474, 1.473, 1.472, 1.471, 1.47, 1.47, 1.47, 1.47, 1.471, 1.472, 1.473, 1.473, 1.474, 1.474, 1.474, 1.474, 1.474, 1.474, 1.473, 1.472, 1.472, 1.472, 1.472, 1.472, 1.471, 1.47, 1.47, 1.47, 1.468, 1.468, 1.468, 1.468, 1.468, 1.469, 1.47, 1.47, 1.47, 1.47, 1.471, 1.472, 1.472, 1.472, 1.474, 1.474, 1.475, 1.475, 1.476, 1.476, 1.476, 1.476, 1.476, 1.476, 1.475, 1.474, 1.474, 1.473, 1.472, 1.471, 1.47, 1.47, 1.469, 1.468, 1.468, 1.468, 1.468, 1.468, 1.469, 1.47, 1.47, 1.47, 1.47, 1.47, 1.47, 1.468, 1.468, 1.466, 1.466, 1.466, 1.466, 1.466, 1.466, 1.466, 1.466, 1.466, 1.468, 1.47, 1.47, 1.47, 1.47, 1.468, 1.466, 1.466, 1.462, 1.462, 1.458, 1.458, 1.456, 1.454, 1.454, 1.452, 1.45, 1.45, 1.45, 1.45, 1.45, 1.45
1.532, 1.532, 1.532, 1.532, 1.532, 1.532, 1.533, 1.533, 1.533, 1.533, 1.533, 1.532, 1.531, 1.531, 1.531, 1.531, 1.528, 1.527, 1.526, 1.526, 1.525, 1.525, 1.525, 1.525, 1.526, 1.526, 1.527, 1.528, 1.531, 1.531, 1.531, 1.531, 1.528, 1.527, 1.526, 1.525, 1.524, 1.523, 1.522, 1.522, 1.521, 1.521, 1.522, 1.522, 1.522, 1.524, 1.525, 1.526, 1.527, 1.527, 1.526, 1.525, 1.523, 1.522, 1.52, 1.518, 1.517, 1.516, 1.513, 1.513, 1.513, 1.516, 1.516, 1.516, 1.517, 1.517, 1.518, 1.518, 1.518, 1.517, 1.517, 1.517, 1.516, 1.516, 1.516, 1.516, 1.516, 1.513, 1.512, 1.511, 1.51, 1.509, 1.509, 1.509, 1.509, 1.51, 1.51, 1.511, 1.512, 1.517, 1.518, 1.519, 1.52, 1.52, 1.52, 1.519, 1.518, 1.517, 1.516, 1.513, 1.512, 1.511, 1.511, 1.511, 1.511, 1.512, 1.512, 1.516, 1.513, 1.512, 1.511, 1.505, 1.495, 1.486, 1.472, 1.46, 1.448, 1.436, 1.425, 1.415, 1.41, 1.404, 1.402, 1.4, 1.399, 1.397, 1.395, 1.395, 1.395, 1.395, 1.395, 1.395, 1.397, 1.397, 1.399, 1.4, 1.4, 1.4, 1.4, 1.402, 1.402, 1.402, 1.4, 1.4, 1.4, 1.399, 1.399, 1.397, 1.397, 1.397, 1.397, 1.397, 1.397, 1.397, 1.397, 1.397, 1.397, 1.395, 1.395, 1.395, 1.395, 1.395, 1.395, 1.393, 1.393, 1.393, 1.391, 1.39, 1.39, 1.388, 1.388, 1.388, 1.388, 1.388, 1.388, 1.39, 1.39, 1.39, 1.39, 1.39, 1.39, 1.39, 1.388, 1.386, 1.386, 1.386, 1.384, 1.384, 1.384, 1.384, 1.384, 1.386, 1.386, 1.388, 1.388, 1.388, 1.39, 1.39, 1.39, 1.388, 1.388, 1.386, 1.386, 1.386, 1.384, 1.382, 1.382, 1.382, 1.382, 1.382, 1.382, 1.382, 1.384, 1.386, 1.386, 1.388, 1.39, 1.39, 1.39, 1.39, 1.388, 1.388, 1.386, 1.384, 1.384, 1.384, 1.384, 1.384, 1.384, 1.384, 1.384, 1.386, 1.386, 1.386, 1.386, 1.386, 1.386, 1.388, 1.388, 1.386, 1.386, 1.386, 1.386, 1.386, 1.386, 1.386, 1.384, 1.384, 1.386, 1.386, 1.386, 1.386, 1.386, 1.386, 1.386, 1.386, 1.386, 1.386, 1.386, 1.384, 1.384, 1.384, 1.384, 1.384, 1.384, 1.384, 1.384, 1.384, 1.384, 1.384, 1.386, 1.384, 1.384, 1.384, 1.382, 1.382, 1.381, 1.381, 1.381, 1.381, 1.381, 1.381, 1.381, 1.381, 1.381, 1.381, 1.381, 1.381, 1.381, 1.381, 1.381, 1.381, 1.381, 1.381, 1.381, 1.381, 1.381, 1.381, 1.381, 1.381, 1.381, 1.381, 1.381, 1.382, 1.382, 1.382, 1.382, 1.382, 1.382, 1.382, 1.382, 1.382, 1.382, 1.382, 1.388, 1.395, 1.406, 1.415, 1.425, 1.436, 1.446, 1.456, 1.468, 1.473, 1.473, 1.474, 1.474, 1.473, 1.472, 1.472, 1.473, 1.474, 1.474, 1.475, 1.476, 1.476, 1.476, 1.476, 1.475, 1.474, 1.473, 1.472, 1.471, 1.471, 1.47, 1.47, 1.471, 1.471, 1.472, 1.473, 1.474, 1.474, 1.475, 1.475, 1.474, 1.474, 1.474, 1.473, 1.472, 1.472, 1.472, 1.472, 1.472, 1.471, 1.47, 1.47, 1.47, 1.47, 1.469, 1.468, 1.468, 1.469, 1.469, 1.47, 1.47, 1.47, 1.47, 1.471, 1.472, 1.472, 1.473, 1.474, 1.474, 1.475, 1.476, 1.476, 1.476, 1.476, 1.476, 1.476, 1.476, 1.475, 1.474, 1.473, 1.472, 1.472, 1.471, 1.47, 1.47, 1.469, 1.468, 1.468, 1.468, 1.468, 1.468, 1.469, 1.47, 1.47, 1.47, 1.47, 1.47, 1.47, 1.468, 1.468, 1.466, 1.466, 1.466, 1.464, 1.464, 1.464, 1.466, 1.466, 1.466, 1.468, 1.468, 1.468, 1.47, 1.468, 1.468, 1.466, 1.464, 1.462, 1.462, 1.458, 1.456, 1.454, 1.454, 1.452, 1.45, 1.45, 1.45, 1.45, 1.448, 1.448, 1.45
1.533, 1.533, 1.533, 1.533, 1.533, 1.533, 1.533, 1.534, 1.533, 1.533, 1.532, 1.532, 1.531, 1.531, 1.531, 1.531, 1.528, 1.528, 1.527, 1.526, 1.526, 1.526, 1.526, 1.526, 1.526, 1.526, 1.527, 1.528, 1.531, 1.531, 1.531, 1.528, 1.527, 1.526, 1.525, 1.524, 1.524, 1.524, 1.523, 1.522, 1.522, 1.522, 1.522, 1.523, 1.524, 1.525, 1.526, 1.527, 1.528, 1.527, 1.527, 1.525, 1.524, 1.522, 1.52, 1.518, 1.517, 1.516, 1.513, 1.513, 1.513, 1.516, 1.516, 1.516, 1.517, 1.518, 1.518, 1.518, 1.518, 1.518, 1.518, 1.517, 1.517, 1.516, 1.516, 1.516, 1.516, 1.513, 1.512, 1.511, 1.51, 1.509, 1.509, 1.509, 1.509, 1.509, 1.51, 1.511, 1.512, 1.517, 1.518, 1.519, 1.52, 1.52, 1.52, 1.519, 1.518, 1.517, 1.513, 1.513, 1.512, 1.511, 1.511, 1.511, 1.511, 1.512, 1.512, 1.516, 1.516, 1.512, 1.511, 1.507, 1.501, 1.487, 1.473, 1.462, 1.45, 1.438, 1.427, 1.415, 1.41, 1.404, 1.402, 1.4, 1.399, 1.397, 1.397, 1.395, 1.395, 1.395, 1.397, 1.397, 1.397, 1.397, 1.399, 1.4, 1.4, 1.4, 1.402, 1.402, 1.402, 1.4, 1.4, 1.4, 1.399, 1.399, 1.397, 1.397, 1.397, 1.397, 1.397, 1.397, 1.397, 1.397, 1.395, 1.395, 1.395, 1.395, 1.395, 1.395, 1.395, 1.395, 1.393, 1.393, 1.393, 1.393, 1.391, 1.39, 1.39, 1.388, 1.388, 1.388, 1.388, 1.388, 1.388, 1.39, 1.39, 1.39, 1.39, 1.39, 1.39, 1.39, 1.388, 1.388, 1.386, 1.386, 1.386, 1.384, 1.384, 1.386, 1.386, 1.386, 1.388, 1.388, 1.388, 1.39, 1.39, 1.39, 1.39, 1.388, 1.388, 1.386, 1.386, 1.386, 1.384, 1.384, 1.382, 1.382, 1.382, 1.382, 1.382, 1.382, 1.384, 1.386, 1.386, 1.388, 1.388, 1.388, 1.39, 1.388, 1.388, 1.388, 1.386, 1.384, 1.384, 1.384, 1.384, 1.384, 1.384, 1.384, 1.386, 1.386, 1.386, 1.386, 1.388, 1.388, 1.388, 1.388, 1.388, 1.388, 1.388, 1.388, 1.388, 1.386, 1.386, 1.386, 1.386, 1.386, 1.386, 1.386, 1.386, 1.386, 1.386, 1.386, 1.386, 1.386, 1.386, 1.386, 1.386, 1.386, 1.384, 1.384, 1.384, 1.384, 1.384, 1.384, 1.384, 1.384, 1.384, 1.384, 1.384, 1.384, 1.384, 1.382, 1.382, 1.382, 1.381, 1.381, 1.381, 1.381, 1.381, 1.381, 1.381, 1.381, 1.382, 1.382, 1.381, 1.381, 1.381, 1.381, 1.381, 1.381, 1.381, 1.381, 1.381, 1.381, 1.381, 1.381, 1.381, 1.381, 1.381, 1.381, 1.381, 1.381, 1.381, 1.381, 1.381, 1.381, 1.381, 1.381, 1.381, 1.382, 1.382, 1.382, 1.386, 1.395, 1.404, 1.415, 1.425, 1.436, 1.446, 1.456, 1.466, 1.473, 1.474, 1.474, 1.474, 1.473, 1.472, 1.472, 1.473, 1.474, 1.474, 1.475, 1.476, 1.476, 1.476, 1.476, 1.475, 1.474, 1.474, 1.472, 1.472, 1.471, 1.471, 1.471, 1.471, 1.472, 1.473, 1.474, 1.475, 1.475, 1.475, 1.475, 1.474, 1.474, 1.474, 1.473, 1.472, 1.472, 1.472, 1.472, 1.472, 1.471, 1.47, 1.47, 1.47, 1.47, 1.47, 1.47, 1.47, 1.47, 1.47, 1.47, 1.47, 1.47, 1.47, 1.471, 1.472, 1.472, 1.473, 1.474, 1.475, 1.475, 1.476, 1.476, 1.476, 1.476, 1.476, 1.476, 1.475, 1.474, 1.474, 1.473, 1.472, 1.471, 1.47, 1.47, 1.469, 1.469, 1.468, 1.468, 1.468, 1.468, 1.469, 1.469, 1.47, 1.47, 1.47, 1.47, 1.47, 1.47, 1.468, 1.468, 1.468, 1.466, 1.466, 1.464, 1.464, 1.464, 1.466, 1.466, 1.466, 1.466, 1.468, 1.468, 1.47, 1.468, 1.466, 1.466, 1.464, 1.462, 1.46, 1.458, 1.456, 1.454, 1.454, 1.452, 1.45, 1.45, 1.45, 1.45, 1.446, 1.446, 1.448
1.533, 1.533, 1.533, 1.533, 1.533, 1.533, 1.534, 1.534, 1.533, 1.533, 1.532, 1.531, 1.531, 1.531, 1.531, 1.531, 1.528, 1.528, 1.527, 1.527, 1.526, 1.526, 1.526, 1.526, 1.526, 1.527, 1.527, 1.528, 1.528, 1.531, 1.531, 1.528, 1.527, 1.526, 1.525, 1.524, 1.524, 1.524, 1.523, 1.523, 1.523, 1.523, 1.523, 1.524, 1.525, 1.526, 1.527, 1.528, 1.528, 1.528, 1.527, 1.526, 1.524, 1.522, 1.52, 1.518, 1.517, 1.516, 1.513, 1.513, 1.513, 1.516, 1.516, 1.516, 1.517, 1.518, 1.518, 1.518, 1.518, 1.518, 1.518, 1.518, 1.517, 1.517, 1.516, 1.516, 1.516, 1.512, 1.511, 1.511, 1.51, 1.509, 1.509, 1.509, 1.509, 1.509, 1.51, 1.511, 1.512, 1.516, 1.517, 1.52, 1.52, 1.52, 1.52, 1.519, 1.518, 1.517, 1.513, 1.512, 1.511, 1.511, 1.511, 1.511, 1.511, 1.511, 1.512, 1.516, 1.516, 1.512, 1.512, 1.509, 1.502, 1.488, 1.474, 1.464, 1.45, 1.438, 1.427, 1.417, 1.41, 1.404, 1.402, 1.4, 1.399, 1.397, 1.397, 1.397, 1.397, 1.397, 1.397, 1.397, 1.399, 1.399, 1.4, 1.4, 1.4, 1.402, 1.402, 1.402, 1.402, 1.4, 1.4, 1.4, 1.399, 1.397, 1.397, 1.397, 1.397, 1.397, 1.397, 1.395, 1.395, 1.395, 1.395, 1.395, 1.395, 1.393, 1.393, 1.393, 1.393, 1.395, 1.393, 1.393, 1.393, 1.393, 1.391, 1.39, 1.39, 1.388, 1.388, 1.388, 1.388, 1.388, 1.388, 1.388, 1.39, 1.39, 1.39, 1.39, 1.39, 1.39, 1.39, 1.388, 1.386, 1.386, 1.386, 1.386, 1.386, 1.386, 1.386, 1.386, 1.388, 1.39, 1.39, 1.39, 1.39, 1.39, 1.39, 1.388, 1.388, 1.386, 1.386, 1.386, 1.386, 1.384, 1.384, 1.382, 1.382, 1.382, 1.384, 1.384, 1.384, 1.386, 1.386, 1.388, 1.388, 1.388, 1.388, 1.388, 1.388, 1.388, 1.386, 1.384, 1.384, 1.384, 1.384, 1.384, 1.384, 1.384, 1.386, 1.386, 1.386, 1.386, 1.388, 1.388, 1.388, 1.388, 1.39, 1.39, 1.39, 1.39, 1.39, 1.39, 1.388, 1.388, 1.388, 1.388, 1.388, 1.386, 1.386, 1.386, 1.386, 1.386, 1.386, 1.386, 1.386, 1.386, 1.386, 1.386, 1.384, 1.384, 1.384, 1.384, 1.384, 1.384, 1.384, 1.384, 1.384, 1.384, 1.384, 1.384, 1.384, 1.382, 1.382, 1.382, 1.381, 1.381, 1.381, 1.381, 1.381, 1.382, 1.382, 1.382, 1.382, 1.382, 1.382, 1.382, 1.381, 1.381, 1.381, 1.381, 1.381, 1.381, 1.381, 1.381, 1.381, 1.381, 1.381, 1.381, 1.381, 1.381, 1.381, 1.381, 1.381, 1.381, 1.381, 1.381, 1.381, 1.381, 1.381, 1.381, 1.381, 1.382, 1.386, 1.393, 1.404, 1.413, 1.425, 1.434, 1.446, 1.456, 1.466, 1.473, 1.474, 1.474, 1.474, 1.473, 1.473, 1.472, 1.473, 1.474, 1.474, 1.475, 1.476, 1.476, 1.476, 1.476, 1.475, 1.474, 1.474, 1.473, 1.472, 1.472, 1.472, 1.472, 1.472, 1.473, 1.474, 1.474, 1.475, 1.476, 1.476, 1.475, 1.475, 1.474, 1.474, 1.473, 1.473, 1.472, 1.472, 1.472, 1.472, 1.471, 1.471, 1.47, 1.47, 1.47, 1.47, 1.47, 1.47, 1.47, 1.47, 1.47, 1.47, 1.47, 1.47, 1.471, 1.472, 1.472, 1.473, 1.474, 1.475, 1.476, 1.476, 1.476, 1.476, 1.476, 1.476, 1.475, 1.475, 1.474, 1.473, 1.472, 1.471, 1.471, 1.47, 1.469, 1.469, 1.468, 1.468, 1.468, 1.468, 1.468, 1.469, 1.469, 1.47, 1.47, 1.471, 1.471, 1.471, 1.47, 1.47, 1.468, 1.468, 1.466, 1.466, 1.464, 1.464, 1.464, 1.464, 1.466, 1.466, 1.466, 1.466, 1.468, 1.468, 1.468, 1.466, 1.466, 1.464, 1.462, 1.46, 1.458, 1.456, 1.454, 1.452, 1.45, 1.45, 1.448, 1.448, 1.45, 1.446, 1.446, 1.448
1.533, 1.533, 1.533, 1.533, 1.533, 1.534, 1.534, 1.534, 1.533, 1.533, 1.532, 1.531, 1.531, 1.531, 1.531, 1.531, 1.531, 1.528, 1.528, 1.527, 1.526, 1.526, 1.526, 1.526, 1.526, 1.527, 1.527, 1.528, 1.528, 1.528, 1.528, 1.528, 1.527, 1.526, 1.525, 1.524, 1.524, 1.524, 1.524, 1.524, 1.524, 1.524, 1.524, 1.525, 1.526, 1.527, 1.528, 1.528, 1.531, 1.528, 1.527, 1.526, 1.524, 1.521, 1.52, 1.518, 1.517, 1.516, 1.513, 1.513, 1.513, 1.516, 1.516, 1.516, 1.517, 1.518, 1.519, 1.519, 1.519, 1.519, 1.518, 1.518, 1.518, 1.517, 1.516, 1.516, 1.516, 1.512, 1.511, 1.511, 1.509, 1.509, 1.508, 1.508, 1.508, 1.509, 1.509, 1.511, 1.512, 1.516, 1.516, 1.52, 1.52, 1.52, 1.52, 1.519, 1.518, 1.517, 1.516, 1.512, 1.511, 1.511, 1.51, 1.51, 1.511, 1.511, 1.512, 1.516, 1.516, 1.512, 1.511, 1.51, 1.503, 1.489, 1.478, 1.464, 1.452, 1.44, 1.429, 1.417, 1.412, 1.404, 1.402, 1.4, 1.399, 1.399, 1.399, 1.397, 1.397, 1.397, 1.397, 1.399, 1.399, 1.4, 1.4, 1.4, 1.402, 1.402, 1.402, 1.402, 1.402, 1.4, 1.4, 1.4, 1.399, 1.397, 1.397, 1.397, 1.397, 1.397, 1.395, 1.395, 1.395, 1.395, 1.395, 1.395, 1.393, 1.393, 1.393, 1.393, 1.393, 1.393, 1.393, 1.393, 1.393, 1.393, 1.391, 1.391, 1.39, 1.388, 1.388, 1.388, 1.388, 1.388, 1.388, 1.388, 1.39, 1.39, 1.39, 1.39, 1.39, 1.39, 1.39, 1.388, 1.388, 1.386, 1.386, 1.386, 1.386, 1.386, 1.386, 1.388, 1.388, 1.39, 1.39, 1.39, 1.39, 1.39, 1.39, 1.388, 1.388, 1.386, 1.386, 1.386, 1.386, 1.386, 1.384, 1.384, 1.384, 1.384, 1.384, 1.384, 1.386, 1.386, 1.386, 1.388, 1.388, 1.388, 1.388, 1.388, 1.388, 1.386, 1.386, 1.384, 1.384, 1.384, 1.384, 1.384, 1.384, 1.386, 1.386, 1.386, 1.386, 1.386, 1.388, 1.388, 1.388, 1.388, 1.39, 1.39, 1.39, 1.39, 1.39, 1.39, 1.39, 1.39, 1.39, 1.39, 1.388, 1.388, 1.388, 1.386, 1.386, 1.386, 1.386, 1.386, 1.386, 1.388, 1.386, 1.386, 1.386, 1.384, 1.384, 1.384, 1.384, 1.382, 1.382, 1.382, 1.382, 1.382, 1.382, 1.382, 1.382, 1.382, 1.382, 1.382, 1.381, 1.381, 1.381, 1.382, 1.382, 1.382, 1.384, 1.384, 1.384, 1.384, 1.384, 1.382, 1.382, 1.382, 1.382, 1.382, 1.382, 1.382, 1.382, 1.382, 1.382, 1.382, 1.382, 1.382, 1.381, 1.381, 1.381, 1.381, 1.381, 1.381, 1.379, 1.379, 1.379, 1.379, 1.381, 1.381, 1.381, 1.381, 1.384, 1.393, 1.402, 1.413, 1.423, 1.434, 1.446, 1.456, 1.466, 1.473, 1.474, 1.474, 1.474, 1.473, 1.473, 1.472, 1.473, 1.474, 1.474, 1.475, 1.475, 1.476, 1.476, 1.476, 1.475, 1.474, 1.474, 1.473, 1.472, 1.472, 1.472, 1.472, 1.473, 1.473, 1.474, 1.475, 1.476, 1.476, 1.476, 1.476, 1.475, 1.474, 1.474, 1.474, 1.473, 1.472, 1.472, 1.472, 1.472, 1.472, 1.471, 1.471, 1.47, 1.47, 1.47, 1.47, 1.47, 1.47, 1.47, 1.47, 1.47, 1.47, 1.47, 1.471, 1.472, 1.472, 1.473, 1.474, 1.475, 1.476, 1.476, 1.476, 1.476, 1.476, 1.476, 1.475, 1.474, 1.473, 1.472, 1.472, 1.471, 1.47, 1.47, 1.469, 1.468, 1.468, 1.468, 1.468, 1.468, 1.468, 1.468, 1.469, 1.47, 1.47, 1.471, 1.471, 1.471, 1.471, 1.47, 1.468, 1.468, 1.468, 1.466, 1.466, 1.464, 1.464, 1.464, 1.466, 1.466, 1.466, 1.466, 1.466, 1.468, 1.468, 1.466, 1.466, 1.464, 1.462, 1.46, 1.458, 1.454, 1.454, 1.452, 1.45, 1.45, 1.448, 1.448, 1.448, 1.446, 1.446, 1.448
1.534, 1.534, 1.534, 1.534, 1.534, 1.534, 1.535, 1.534, 1.533, 1.533, 1.532, 1.531, 1.531, 1.531, 1.531, 1.531, 1.531, 1.528, 1.528, 1.527, 1.527, 1.526, 1.526, 1.526, 1.526, 1.526, 1.527, 1.528, 1.528, 1.528, 1.528, 1.528, 1.527, 1.526, 1.525, 1.524, 1.524, 1.524, 1.524, 1.524, 1.524, 1.524, 1.525, 1.526, 1.527, 1.528, 1.528, 1.531, 1.531, 1.528, 1.527, 1.526, 1.525, 1.521, 1.519, 1.518, 1.517, 1.516, 1.513, 1.513, 1.513, 1.516, 1.516, 1.517, 1.518, 1.518, 1.519, 1.52, 1.52, 1.519, 1.519, 1.518, 1.518, 1.518, 1.517, 1.516, 1.516, 1.512, 1.511, 1.511, 1.509, 1.508, 1.507, 1.507, 1.507, 1.508, 1.509, 1.51, 1.511, 1.516, 1.516, 1.52, 1.52, 1.52, 1.52, 1.519, 1.518, 1.517, 1.516, 1.512, 1.511, 1.51, 1.51, 1.51, 1.511, 1.511, 1.512, 1.516, 1.516, 1.513, 1.512, 1.511, 1.503, 1.49, 1.479, 1.466, 1.454, 1.44, 1.429, 1.419, 1.412, 1.404, 1.402, 1.4, 1.4, 1.399, 1.399, 1.397, 1.397, 1.397, 1.399, 1.399, 1.4, 1.4, 1.4, 1.402, 1.402, 1.404, 1.404, 1.402, 1.402, 1.4, 1.4, 1.4, 1.399, 1.397, 1.397, 1.397, 1.395, 1.395, 1.395, 1.393, 1.393, 1.393, 1.393, 1.393, 1.393, 1.393, 1.393, 1.393, 1.393, 1.393, 1.393, 1.393, 1.393, 1.393, 1.391, 1.391, 1.39, 1.39, 1.39, 1.39, 1.388, 1.388, 1.388, 1.39, 1.39, 1.39, 1.39, 1.39, 1.39, 1.39, 1.39, 1.39, 1.388, 1.388, 1.386, 1.386, 1.386, 1.386, 1.386, 1.388, 1.388, 1.39, 1.39, 1.39, 1.39, 1.39, 1.388, 1.388, 1.386, 1.386, 1.386, 1.386, 1.386, 1.386, 1.386, 1.386, 1.386, 1.386, 1.386, 1.386, 1.386, 1.386, 1.386, 1.388, 1.388, 1.388, 1.386, 1.386, 1.386, 1.386, 1.386, 1.386, 1.384, 1.384, 1.384, 1.384, 1.386, 1.386, 1.386, 1.386, 1.386, 1.388, 1.388, 1.388, 1.388, 1.39, 1.39, 1.39, 1.39, 1.39, 1.39, 1.39, 1.39, 1.39, 1.39, 1.39, 1.39, 1.39, 1.388, 1.388, 1.386, 1.386, 1.386, 1.386, 1.388, 1.388, 1.388, 1.386, 1.386, 1.386, 1.384, 1.384, 1.384, 1.382, 1.382, 1.382, 1.382, 1.382, 1.382, 1.382, 1.382, 1.382, 1.382, 1.381, 1.381, 1.381, 1.382, 1.382, 1.382, 1.384, 1.384, 1.384, 1.384, 1.384, 1.384, 1.384, 1.384, 1.382, 1.382, 1.382, 1.382, 1.382, 1.382, 1.382, 1.382, 1.382, 1.382, 1.382, 1.381, 1.381, 1.381, 1.381, 1.381, 1.379, 1.379, 1.379, 1.379, 1.379, 1.379, 1.379, 1.379, 1.381, 1.382, 1.391, 1.4, 1.412, 1.423, 1.432, 1.444, 1.454, 1.466, 1.473, 1.473, 1.474, 1.474, 1.474, 1.473, 1.472, 1.473, 1.474, 1.474, 1.475, 1.475, 1.476, 1.476, 1.476, 1.475, 1.475, 1.474, 1.473, 1.473, 1.473, 1.473, 1.473, 1.473, 1.474, 1.475, 1.476, 1.476, 1.476, 1.476, 1.476, 1.475, 1.474, 1.474, 1.474, 1.473, 1.473, 1.472, 1.472, 1.472, 1.472, 1.472, 1.471, 1.471, 1.47, 1.47, 1.47, 1.47, 1.47, 1.47, 1.47, 1.47, 1.47, 1.471, 1.471, 1.472, 1.472, 1.473, 1.474, 1.474, 1.475, 1.476, 1.476, 1.476, 1.475, 1.475, 1.474, 1.474, 1.473, 1.472, 1.471, 1.471, 1.47, 1.468, 1.468, 1.468, 1.468, 1.468, 1.468, 1.468, 1.468, 1.468, 1.469, 1.47, 1.47, 1.471, 1.472, 1.472, 1.471, 1.471, 1.47, 1.468, 1.468, 1.466, 1.466, 1.464, 1.464, 1.464, 1.466, 1.466, 1.466, 1.466, 1.466, 1.468, 1.466, 1.466, 1.466, 1.462, 1.462, 1.458, 1.458, 1.454, 1.454, 1.452, 1.45, 1.45, 1.448, 1.448, 1.448, 1.446, 1.446, 1.448
1.535, 1.535, 1.535, 1.535, 1.535, 1.535, 1.535, 1.534, 1.533, 1.532, 1.531, 1.531, 1.531, 1.531, 1.531, 1.531, 1.531, 1.531, 1.531, 1.528, 1.527, 1.527, 1.526, 1.526, 1.526, 1.526, 1.527, 1.528, 1.528, 1.528, 1.527, 1.527, 1.526, 1.525, 1.524, 1.524, 1.524, 1.524, 1.524, 1.524, 1.524, 1.525, 1.526, 1.527, 1.528, 1.528, 1.531, 1.531, 1.531, 1.528, 1.528, 1.525, 1.524, 1.52, 1.518, 1.517, 1.516, 1.516, 1.513, 1.513, 1.513, 1.516, 1.516, 1.517, 1.518, 1.519, 1.519, 1.52, 1.52, 1.52, 1.52, 1.519, 1.519, 1.518, 1.518, 1.517, 1.516, 1.512, 1.511, 1.51, 1.509, 1.508, 1.507, 1.507, 1.507, 1.507, 1.508, 1.509, 1.51, 1.516, 1.516, 1.519, 1.52, 1.52, 1.52, 1.519, 1.518, 1.517, 1.513, 1.512, 1.511, 1.51, 1.509, 1.51, 1.511, 1.511, 1.512, 1.516, 1.516, 1.513, 1.512, 1.512, 1.504, 1.492, 1.48, 1.466, 1.454, 1.442, 1.43, 1.419, 1.412, 1.406, 1.402, 1.4, 1.4, 1.399, 1.399, 1.399, 1.399, 1.399, 1.4, 1.4, 1.4, 1.402, 1.402, 1.404, 1.404, 1.404, 1.404, 1.402, 1.4, 1.4, 1.399, 1.399, 1.397, 1.397, 1.395, 1.395, 1.393, 1.393, 1.393, 1.393, 1.393, 1.393, 1.393, 1.393, 1.393, 1.391, 1.391, 1.391, 1.391, 1.391, 1.393, 1.393, 1.393, 1.393, 1.393, 1.391, 1.391, 1.39, 1.39, 1.39, 1.39, 1.39, 1.39, 1.39, 1.39, 1.39, 1.39, 1.39, 1.39, 1.39, 1.39, 1.39, 1.39, 1.388, 1.388, 1.388, 1.388, 1.388, 1.388, 1.388, 1.39, 1.39, 1.39, 1.39, 1.39, 1.39, 1.388, 1.388, 1.386, 1.386, 1.386, 1.386, 1.386, 1.386, 1.386, 1.386, 1.386, 1.386, 1.386, 1.386, 1.386, 1.386, 1.386, 1.388, 1.388, 1.386, 1.386, 1.386, 1.386, 1.386, 1.386, 1.386, 1.384, 1.384, 1.384, 1.384, 1.386, 1.386, 1.386, 1.386, 1.386, 1.388, 1.388, 1.388, 1.39, 1.39, 1.39, 1.39, 1.391, 1.391, 1.393, 1.393, 1.393, 1.393, 1.391, 1.391, 1.39, 1.39, 1.39, 1.388, 1.388, 1.388, 1.388, 1.388, 1.388, 1.388, 1.388, 1.388, 1.386, 1.386, 1.384, 1.384, 1.384, 1.382, 1.382, 1.382, 1.382, 1.382, 1.382, 1.382, 1.382, 1.382, 1.381, 1.381, 1.381, 1.381, 1.382, 1.382, 1.384, 1.384, 1.384, 1.386, 1.386, 1.386, 1.386, 1.384, 1.384, 1.384, 1.382, 1.382, 1.382, 1.382, 1.384, 1.384, 1.382, 1.382, 1.382, 1.382, 1.381, 1.381, 1.381, 1.381, 1.381, 1.379, 1.379, 1.379, 1.379, 1.379, 1.379, 1.379, 1.379, 1.379, 1.382, 1.391, 1.4, 1.41, 1.421, 1.432, 1.442, 1.454, 1.464, 1.473, 1.473, 1.474, 1.474, 1.474, 1.473, 1.472, 1.473, 1.474, 1.474, 1.475, 1.475, 1.476, 1.476, 1.476, 1.476, 1.475, 1.474, 1.474, 1.474, 1.474, 1.474, 1.474, 1.474, 1.474, 1.475, 1.476, 1.476, 1.476, 1.476, 1.476, 1.475, 1.474, 1.474, 1.474, 1.474, 1.473, 1.472, 1.472, 1.472, 1.472, 1.472, 1.472, 1.472, 1.471, 1.471, 1.47, 1.47, 1.47, 1.47, 1.47, 1.47, 1.47, 1.471, 1.472, 1.472, 1.472, 1.473, 1.474, 1.474, 1.475, 1.476, 1.476, 1.475, 1.475, 1.474, 1.474, 1.473, 1.472, 1.472, 1.471, 1.47, 1.468, 1.468, 1.468, 1.466, 1.466, 1.466, 1.466, 1.468, 1.468, 1.468, 1.469, 1.47, 1.47, 1.471, 1.472, 1.472, 1.472, 1.471, 1.471, 1.468, 1.468, 1.468, 1.466, 1.466, 1.466, 1.466, 1.466, 1.466, 1.466, 1.466, 1.466, 1.466, 1.466, 1.466, 1.464, 1.462, 1.462, 1.458, 1.458, 1.454, 1.454, 1.452, 1.45, 1.45, 1.448, 1.448, 1.45, 1.446, 1.446, 1.448
1.535, 1.535, 1.535, 1.535, 1.535, 1.535, 1.535, 1.534, 1.533, 1.532, 1.531, 1.531, 1.531, 1.531, 1.531, 1.531, 1.531, 1.531, 1.531, 1.531, 1.528, 1.527, 1.527, 1.526, 1.526, 1.526, 1.527, 1.527, 1.527, 1.527, 1.527, 1.526, 1.526, 1.525, 1.524, 1.524, 1.524, 1.524, 1.524, 1.524, 1.524, 1.525, 1.526, 1.527, 1.528, 1.531, 1.532, 1.532, 1.531, 1.528, 1.528, 1.524, 1.523, 1.519, 1.518, 1.517, 1.516, 1.513, 1.513, 1.513, 1.513, 1.516, 1.516, 1.516, 1.519, 1.519, 1.52, 1.52, 1.52, 1.52, 1.52, 1.52, 1.52, 1.519, 1.518, 1.517, 1.517, 1.516, 1.511, 1.51, 1.509, 1.508, 1.507, 1.507, 1.507, 1.507, 1.508, 1.509, 1.511, 1.512, 1.517, 1.518, 1.519, 1.52, 1.52, 1.519, 1.518, 1.517, 1.513, 1.512, 1.511, 1.51, 1.509, 1.51, 1.511, 1.511, 1.512, 1.516, 1.516, 1.516, 1.512, 1.512, 1.505, 1.492, 1.48, 1.468, 1.456, 1.444, 1.432, 1.421, 1.413, 1.406, 1.404, 1.4, 1.4, 1.4, 1.399, 1.399, 1.399, 1.4, 1.4, 1.4, 1.402, 1.402, 1.404, 1.404, 1.404, 1.404, 1.402, 1.402, 1.4, 1.4, 1.399, 1.397, 1.397, 1.395, 1.393, 1.393, 1.393, 1.393, 1.393, 1.393, 1.393, 1.393, 1.393, 1.393, 1.391, 1.391, 1.39, 1.39, 1.39, 1.391, 1.391, 1.391, 1.393, 1.393, 1.393, 1.393, 1.391, 1.391, 1.39, 1.39, 1.39, 1.39, 1.39, 1.39, 1.39, 1.39, 1.39, 1.39, 1.391, 1.391, 1.39, 1.39, 1.39, 1.39, 1.39, 1.39, 1.388, 1.388, 1.388, 1.388, 1.39, 1.39, 1.39, 1.39, 1.388, 1.388, 1.388, 1.386, 1.386, 1.386, 1.386, 1.386, 1.386, 1.386, 1.386, 1.386, 1.386, 1.386, 1.386, 1.386, 1.386, 1.386, 1.386, 1.388, 1.386, 1.386, 1.386, 1.386, 1.386, 1.386, 1.386, 1.386, 1.386, 1.386, 1.386, 1.386, 1.386, 1.386, 1.386, 1.386, 1.386, 1.388, 1.388, 1.388, 1.388, 1.39, 1.39, 1.391, 1.391, 1.393, 1.393, 1.393, 1.393, 1.393, 1.393, 1.393, 1.391, 1.39, 1.39, 1.388, 1.388, 1.388, 1.388, 1.388, 1.388, 1.388, 1.388, 1.388, 1.388, 1.386, 1.386, 1.384, 1.384, 1.382, 1.382, 1.382, 1.382, 1.382, 1.382, 1.382, 1.382, 1.381, 1.381, 1.381, 1.381, 1.381, 1.382, 1.382, 1.382, 1.384, 1.386, 1.386, 1.386, 1.386, 1.386, 1.386, 1.386, 1.384, 1.384, 1.384, 1.384, 1.384, 1.384, 1.384, 1.382, 1.382, 1.382, 1.382, 1.381, 1.381, 1.381, 1.381, 1.381, 1.379, 1.379, 1.379, 1.379, 1.379, 1.377, 1.377, 1.379, 1.379, 1.381, 1.39, 1.399, 1.41, 1.419, 1.43, 1.44, 1.452, 1.464, 1.472, 1.473, 1.474, 1.474, 1.474, 1.473, 1.473, 1.473, 1.474, 1.474, 1.475, 1.476, 1.476, 1.476, 1.476, 1.476, 1.475, 1.474, 1.474, 1.474, 1.474, 1.474, 1.474, 1.474, 1.474, 1.475, 1.475, 1.476, 1.476, 1.476, 1.476, 1.475, 1.474, 1.474, 1.474, 1.474, 1.473, 1.473, 1.473, 1.472, 1.472, 1.472, 1.472, 1.472, 1.472, 1.471, 1.471, 1.471, 1.471, 1.471, 1.471, 1.471, 1.471, 1.471, 1.472, 1.472, 1.473, 1.474, 1.474, 1.474, 1.475, 1.475, 1.475, 1.475, 1.474, 1.474, 1.473, 1.472, 1.472, 1.471, 1.468, 1.468, 1.468, 1.466, 1.466, 1.466, 1.466, 1.466, 1.466, 1.468, 1.468, 1.468, 1.469, 1.47, 1.47, 1.471, 1.472, 1.472, 1.472, 1.472, 1.471, 1.47, 1.468, 1.468, 1.466, 1.466, 1.466, 1.466, 1.466, 1.466, 1.466, 1.466, 1.466, 1.466, 1.466, 1.466, 1.464, 1.462, 1.462, 1.458, 1.458, 1.456, 1.454, 1.452, 1.45, 1.45, 1.45, 1.45, 1.45, 1.446, 1.446, 1.448
1.535, 1.535, 1.535, 1.535, 1.535, 1.535, 1.534, 1.533, 1.533, 1.532, 1.531, 1.531, 1.531, 1.531, 1.531, 1.531, 1.531, 1.531, 1.531, 1.531, 1.528, 1.528, 1.527, 1.526, 1.526, 1.526, 1.526, 1.526, 1.526, 1.526, 1.526, 1.525, 1.525, 1.524, 1.524, 1.524, 1.524, 1.524, 1.524, 1.524, 1.525, 1.526, 1.527, 1.528, 1.531, 1.532, 1.532, 1.532, 1.532, 1.528, 1.528, 1.524, 1.522, 1.52, 1.518, 1.517, 1.516, 1.513, 1.513, 1.513, 1.516, 1.516, 1.516, 1.517, 1.52, 1.52, 1.52, 1.52, 1.52, 1.52, 1.52, 1.52, 1.52, 1.52, 1.519, 1.518, 1.517, 1.516, 1.511, 1.51, 1.509, 1.508, 1.507, 1.507, 1.507, 1.507, 1.508, 1.509, 1.511, 1.512, 1.517, 1.518, 1.519, 1.52, 1.52, 1.519, 1.518, 1.517, 1.516, 1.512, 1.511, 1.51, 1.51, 1.51, 1.511, 1.512, 1.512, 1.516, 1.516, 1.516, 1.513, 1.512, 1.505, 1.493, 1.48, 1.468, 1.456, 1.444, 1.432, 1.421, 1.413, 1.406, 1.404, 1.402, 1.4, 1.4, 1.4, 1.4, 1.4, 1.4, 1.402, 1.402, 1.404, 1.404, 1.404, 1.404, 1.404, 1.404, 1.402, 1.4, 1.4, 1.399, 1.397, 1.397, 1.395, 1.393, 1.393, 1.393, 1.393, 1.393, 1.393, 1.391, 1.391, 1.391, 1.391, 1.391, 1.391, 1.39, 1.39, 1.39, 1.39, 1.391, 1.391, 1.391, 1.393, 1.393, 1.393, 1.393, 1.393, 1.391, 1.391, 1.39, 1.39, 1.39, 1.39, 1.39, 1.39, 1.39, 1.39, 1.391, 1.391, 1.391, 1.391, 1.39, 1.39, 1.39, 1.39, 1.39, 1.39, 1.39, 1.39, 1.39, 1.39, 1.388, 1.388, 1.388, 1.388, 1.388, 1.386, 1.386, 1.386, 1.386, 1.386, 1.386, 1.386, 1.386, 1.386, 1.386, 1.386, 1.386, 1.386, 1.386, 1.386, 1.386, 1.386, 1.386, 1.386, 1.386, 1.386, 1.386, 1.386, 1.388, 1.388, 1.386, 1.386, 1.386, 1.386, 1.386, 1.386, 1.386, 1.386, 1.386, 1.386, 1.388, 1.388, 1.388, 1.388, 1.39, 1.39, 1.391, 1.393, 1.393, 1.393, 1.395, 1.393, 1.393, 1.393, 1.393, 1.391, 1.39, 1.39, 1.388, 1.388, 1.388, 1.388, 1.388, 1.388, 1.388, 1.388, 1.388, 1.388, 1.386, 1.386, 1.384, 1.384, 1.382, 1.382, 1.382, 1.382, 1.382, 1.382, 1.382, 1.381, 1.381, 1.381, 1.381, 1.381, 1.381, 1.381, 1.382, 1.382, 1.384, 1.384, 1.386, 1.386, 1.386, 1.386, 1.386, 1.386, 1.386, 1.386, 1.386, 1.386, 1.386, 1.384, 1.384, 1.384, 1.382, 1.382, 1.382, 1.381, 1.381, 1.381, 1.381, 1.381, 1.379, 1.379, 1.379, 1.379, 1.377, 1.377, 1.377, 1.377, 1.377, 1.381, 1.388, 1.399, 1.408, 1.419, 1.429, 1.44, 1.452, 1.462, 1.472, 1.473, 1.474, 1.474, 1.474, 1.474, 1.474, 1.474, 1.474, 1.474, 1.475, 1.476, 1.476, 1.476, 1.476, 1.476, 1.475, 1.475, 1.474, 1.474, 1.474, 1.474, 1.474, 1.474, 1.474, 1.474, 1.475, 1.475, 1.475, 1.475, 1.475, 1.475, 1.474, 1.474, 1.474, 1.474, 1.474, 1.474, 1.473, 1.473, 1.473, 1.473, 1.472, 1.472, 1.472, 1.472, 1.472, 1.472, 1.471, 1.471, 1.471, 1.472, 1.472, 1.472, 1.472, 1.472, 1.473, 1.474, 1.474, 1.474, 1.475, 1.475, 1.475, 1.474, 1.474, 1.473, 1.473, 1.472, 1.471, 1.468, 1.468, 1.466, 1.466, 1.466, 1.466, 1.466, 1.466, 1.466, 1.466, 1.466, 1.468, 1.468, 1.469, 1.47, 1.47, 1.471, 1.472, 1.472, 1.472, 1.472, 1.471, 1.471, 1.47, 1.468, 1.468, 1.466, 1.466, 1.466, 1.466, 1.466, 1.466, 1.466, 1.466, 1.466, 1.466, 1.466, 1.464, 1.462, 1.462, 1.458, 1.458, 1.456, 1.454, 1.452, 1.452, 1.45, 1.45, 1.45, 1.45, 1.448, 1.448, 1.45
1.535, 1.535, 1.535, 1.535, 1.535, 1.535, 1.534, 1.533, 1.533, 1.532, 1.531, 1.531, 1.531, 1.531, 1.531, 1.531, 1.531, 1.531, 1.531, 1.531, 1.531, 1.528, 1.527, 1.526, 1.526, 1.526, 1.526, 1.526, 1.526, 1.526, 1.525, 1.525, 1.524, 1.524, 1.524, 1.524, 1.524, 1.524, 1.524, 1.525, 1.526, 1.526, 1.527, 1.528, 1.531, 1.532, 1.533, 1.532, 1.532, 1.528, 1.527, 1.523, 1.522, 1.52, 1.518, 1.517, 1.516, 1.513, 1.513, 1.513, 1.516, 1.516, 1.517, 1.518, 1.519, 1.52, 1.52, 1.52, 1.52, 1.52, 1.52, 1.52, 1.52, 1.52, 1.519, 1.518, 1.517, 1.517, 1.512, 1.511, 1.509, 1.508, 1.507, 1.507, 1.507, 1.507, 1.508, 1.509, 1.511, 1.512, 1.517, 1.518, 1.519, 1.52, 1.52, 1.519, 1.518, 1.517, 1.516, 1.512, 1.511, 1.511, 1.51, 1.51, 1.511, 1.512, 1.513, 1.516, 1.516, 1.516, 1.513, 1.512, 1.506, 1.494, 1.481, 1.47, 1.456, 1.444, 1.432, 1.421, 1.412, 1.406, 1.404, 1.402, 1.402, 1.402, 1.402, 1.4, 1.4, 1.402, 1.402, 1.404, 1.404, 1.404, 1.404, 1.404, 1.404, 1.404, 1.402, 1.4, 1.4, 1.399, 1.397, 1.395, 1.393, 1.393, 1.393, 1.391, 1.391, 1.391, 1.391, 1.391, 1.39, 1.39, 1.39, 1.39, 1.39, 1.39, 1.39, 1.39, 1.39, 1.39, 1.391, 1.391, 1.393, 1.393, 1.393, 1.393, 1.393, 1.393, 1.391, 1.391, 1.39, 1.39, 1.39, 1.39, 1.39, 1.39, 1.391, 1.391, 1.391, 1.391, 1.391, 1.391, 1.391, 1.391, 1.39, 1.39, 1.39, 1.39, 1.39, 1.39, 1.39, 1.388, 1.388, 1.388, 1.388, 1.386, 1.386, 1.386, 1.386, 1.386, 1.386, 1.386, 1.386, 1.386, 1.386, 1.386, 1.386, 1.386, 1.386, 1.386, 1.386, 1.386, 1.386, 1.386, 1.386, 1.386, 1.386, 1.386, 1.386, 1.388, 1.388, 1.388, 1.388, 1.388, 1.388, 1.388, 1.386, 1.386, 1.386, 1.386, 1.386, 1.386, 1.388, 1.388, 1.388, 1.39, 1.39, 1.391, 1.393, 1.393, 1.395, 1.395, 1.395, 1.395, 1.395, 1.393, 1.393, 1.391, 1.39, 1.388, 1.388, 1.388, 1.388, 1.388, 1.388, 1.388, 1.388, 1.388, 1.388, 1.388, 1.386, 1.386, 1.384, 1.382, 1.382, 1.382, 1.382, 1.382, 1.382, 1.382, 1.381, 1.381, 1.381, 1.381, 1.381, 1.381, 1.381, 1.382, 1.382, 1.382, 1.384, 1.386, 1.386, 1.386, 1.386, 1.386, 1.386, 1.386, 1.386, 1.386, 1.386, 1.386, 1.386, 1.386, 1.384, 1.382, 1.382, 1.382, 1.381, 1.381, 1.381, 1.381, 1.379, 1.379, 1.379, 1.379, 1.379, 1.377, 1.377, 1.377, 1.377, 1.377, 1.379, 1.388, 1.397, 1.406, 1.417, 1.429, 1.438, 1.45, 1.462, 1.471, 1.472, 1.473, 1.474, 1.474, 1.474, 1.474, 1.474, 1.474, 1.474, 1.475, 1.476, 1.476, 1.476, 1.476, 1.476, 1.475, 1.475, 1.474, 1.474, 1.474, 1.474, 1.474, 1.474, 1.474, 1.474, 1.474, 1.474, 1.474, 1.474, 1.474, 1.474, 1.474, 1.474, 1.474, 1.474, 1.474, 1.474, 1.474, 1.474, 1.474, 1.473, 1.473, 1.473, 1.473, 1.472, 1.472, 1.472, 1.472, 1.472, 1.472, 1.472, 1.472, 1.472, 1.472, 1.473, 1.473, 1.474, 1.474, 1.474, 1.474, 1.474, 1.474, 1.474, 1.473, 1.473, 1.472, 1.471, 1.47, 1.468, 1.468, 1.466, 1.466, 1.466, 1.466, 1.466, 1.466, 1.466, 1.466, 1.466, 1.468, 1.468, 1.469, 1.47, 1.47, 1.471, 1.472, 1.472, 1.472, 1.472, 1.472, 1.471, 1.471, 1.468, 1.468, 1.466, 1.466, 1.466, 1.466, 1.466, 1.466, 1.466, 1.466, 1.466, 1.466, 1.466, 1.464, 1.462, 1.462, 1.46, 1.458, 1.456, 1.454, 1.454, 1.452, 1.452, 1.45, 1.45, 1.452, 1.45, 1.45, 1.452
1.535, 1.535, 1.535, 1.535, 1.535, 1.535, 1.534, 1.533, 1.533, 1.532, 1.531, 1.531, 1.531, 1.531, 1.531, 1.531, 1.531, 1.531, 1.531, 1.531, 1.531, 1.528, 1.527, 1.526, 1.526, 1.525, 1.525, 1.525, 1.525, 1.525, 1.524, 1.524, 1.524, 1.524, 1.524, 1.524, 1.525, 1.525, 1.525, 1.526, 1.526, 1.527, 1.528, 1.528, 1.532, 1.532, 1.533, 1.532, 1.532, 1.527, 1.526, 1.524, 1.522, 1.52, 1.518, 1.517, 1.516, 1.516, 1.516, 1.516, 1.516, 1.517, 1.518, 1.519, 1.52, 1.52, 1.521, 1.521, 1.521, 1.521, 1.521, 1.521, 1.521, 1.52, 1.52, 1.519, 1.518, 1.517, 1.512, 1.511, 1.51, 1.507, 1.507, 1.507, 1.507, 1.507, 1.507, 1.508, 1.511, 1.512, 1.517, 1.518, 1.519, 1.52, 1.52, 1.52, 1.518, 1.517, 1.516, 1.512, 1.511, 1.511, 1.511, 1.511, 1.511, 1.512, 1.513, 1.516, 1.516, 1.516, 1.513, 1.512, 1.505, 1.494, 1.482, 1.47, 1.456, 1.444, 1.432, 1.421, 1.412, 1.406, 1.404, 1.402, 1.402, 1.402, 1.402, 1.402, 1.402, 1.402, 1.404, 1.404, 1.404, 1.404, 1.404, 1.404, 1.404, 1.404, 1.402, 1.4, 1.399, 1.397, 1.397, 1.395, 1.393, 1.393, 1.391, 1.391, 1.39, 1.39, 1.39, 1.39, 1.39, 1.39, 1.39, 1.39, 1.39, 1.39, 1.39, 1.39, 1.39, 1.39, 1.391, 1.391, 1.393, 1.393, 1.393, 1.393, 1.393, 1.393, 1.393, 1.391, 1.391, 1.391, 1.39, 1.39, 1.39, 1.391, 1.391, 1.391, 1.391, 1.393, 1.393, 1.393, 1.393, 1.393, 1.391, 1.391, 1.39, 1.39, 1.39, 1.39, 1.388, 1.388, 1.388, 1.386, 1.386, 1.386, 1.386, 1.386, 1.386, 1.386, 1.386, 1.386, 1.386, 1.386, 1.386, 1.386, 1.386, 1.386, 1.386, 1.386, 1.386, 1.386, 1.386, 1.386, 1.386, 1.386, 1.386, 1.386, 1.386, 1.388, 1.388, 1.388, 1.388, 1.388, 1.388, 1.388, 1.388, 1.386, 1.386, 1.386, 1.386, 1.386, 1.388, 1.388, 1.388, 1.388, 1.39, 1.39, 1.393, 1.393, 1.395, 1.397, 1.397, 1.395, 1.395, 1.393, 1.393, 1.391, 1.39, 1.388, 1.388, 1.388, 1.388, 1.388, 1.388, 1.388, 1.39, 1.388, 1.388, 1.388, 1.386, 1.386, 1.384, 1.384, 1.382, 1.382, 1.382, 1.382, 1.382, 1.382, 1.382, 1.381, 1.381, 1.381, 1.381, 1.381, 1.381, 1.381, 1.382, 1.382, 1.384, 1.384, 1.386, 1.386, 1.386, 1.386, 1.386, 1.386, 1.386, 1.386, 1.386, 1.386, 1.386, 1.386, 1.384, 1.384, 1.382, 1.382, 1.381, 1.381, 1.381, 1.381, 1.379, 1.379, 1.379, 1.379, 1.379, 1.377, 1.377, 1.377, 1.377, 1.377, 1.379, 1.388, 1.397, 1.406, 1.417, 1.427, 1.438, 1.45, 1.462, 1.471, 1.472, 1.473, 1.474, 1.474, 1.474, 1.474, 1.474, 1.474, 1.475, 1.475, 1.476, 1.476, 1.476, 1.476, 1.476, 1.476, 1.475, 1.474, 1.474, 1.474, 1.473, 1.473, 1.473, 1.473, 1.473, 1.474, 1.474, 1.474, 1.474, 1.474, 1.474, 1.474, 1.474, 1.474, 1.474, 1.474, 1.474, 1.474, 1.474, 1.474, 1.474, 1.474, 1.474, 1.473, 1.473, 1.472, 1.472, 1.472, 1.472, 1.472, 1.472, 1.472, 1.472, 1.472, 1.473, 1.474, 1.474, 1.474, 1.474, 1.474, 1.474, 1.474, 1.474, 1.473, 1.472, 1.471, 1.471, 1.468, 1.468, 1.466, 1.466, 1.466, 1.466, 1.466, 1.466, 1.466, 1.466, 1.466, 1.466, 1.468, 1.468, 1.469, 1.47, 1.47, 1.471, 1.472, 1.472, 1.472, 1.472, 1.472, 1.472, 1.471, 1.471, 1.468, 1.468, 1.466, 1.466, 1.466, 1.466, 1.466, 1.466, 1.466, 1.466, 1.466, 1.466, 1.464, 1.462, 1.462, 1.46, 1.458, 1.458, 1.456, 1.454, 1.454, 1.454, 1.454, 1.454, 1.454, 1.452, 1.452, 1.454
1.535, 1.535, 1.535, 1.535, 1.535, 1.535, 1.534, 1.533, 1.533, 1.532, 1.531, 1.531, 1.531, 1.531, 1.531, 1.531, 1.531, 1.531, 1.531, 1.531, 1.531, 1.531, 1.527, 1.526, 1.526, 1.525, 1.524, 1.524, 1.524, 1.524, 1.524, 1.524, 1.524, 1.524, 1.524, 1.525, 1.525, 1.526, 1.526, 1.526, 1.527, 1.527, 1.528, 1.531, 1.532, 1.532, 1.533, 1.532, 1.532, 1.527, 1.526, 1.524, 1.522, 1.52, 1.518, 1.517, 1.516, 1.516, 1.516, 1.516, 1.517, 1.518, 1.519, 1.52, 1.521, 1.521, 1.522, 1.522, 1.522, 1.522, 1.522, 1.522, 1.522, 1.522, 1.521, 1.52, 1.519, 1.518, 1.517, 1.511, 1.511, 1.507, 1.507, 1.507, 1.507, 1.507, 1.507, 1.507, 1.512, 1.512, 1.517, 1.518, 1.52, 1.521, 1.521, 1.52, 1.519, 1.518, 1.517, 1.512, 1.512, 1.511, 1.511, 1.511, 1.511, 1.512, 1.513, 1.516, 1.516, 1.516, 1.513, 1.512, 1.505, 1.494, 1.481, 1.469, 1.456, 1.444, 1.432, 1.421, 1.412, 1.406, 1.404, 1.402, 1.402, 1.402, 1.402, 1.402, 1.402, 1.404, 1.404, 1.404, 1.404, 1.404, 1.406, 1.404, 1.404, 1.402, 1.4, 1.4, 1.399, 1.397, 1.395, 1.393, 1.393, 1.391, 1.39, 1.39, 1.39, 1.39, 1.39, 1.39, 1.39, 1.39, 1.39, 1.39, 1.39, 1.39, 1.39, 1.39, 1.39, 1.39, 1.391, 1.391, 1.393, 1.393, 1.393, 1.395, 1.395, 1.395, 1.393, 1.393, 1.391, 1.391, 1.391, 1.391, 1.391, 1.391, 1.391, 1.391, 1.391, 1.393, 1.393, 1.393, 1.393, 1.393, 1.393, 1.391, 1.391, 1.39, 1.39, 1.388, 1.388, 1.386, 1.386, 1.386, 1.386, 1.386, 1.386, 1.386, 1.386, 1.386, 1.386, 1.386, 1.386, 1.386, 1.388, 1.388, 1.388, 1.386, 1.386, 1.386, 1.386, 1.386, 1.384, 1.384, 1.386, 1.386, 1.386, 1.386, 1.386, 1.388, 1.39, 1.388, 1.388, 1.388, 1.388, 1.388, 1.388, 1.388, 1.386, 1.386, 1.386, 1.386, 1.386, 1.388, 1.388, 1.388, 1.39, 1.39, 1.393, 1.393, 1.395, 1.397, 1.397, 1.397, 1.397, 1.393, 1.393, 1.39, 1.39, 1.388, 1.388, 1.388, 1.388, 1.388, 1.388, 1.388, 1.39, 1.39, 1.388, 1.388, 1.388, 1.386, 1.386, 1.384, 1.382, 1.382, 1.382, 1.382, 1.382, 1.382, 1.381, 1.381, 1.381, 1.381, 1.381, 1.381, 1.381, 1.381, 1.381, 1.382, 1.382, 1.384, 1.384, 1.386, 1.386, 1.386, 1.386, 1.386, 1.386, 1.386, 1.386, 1.386, 1.386, 1.386, 1.384, 1.382, 1.382, 1.382, 1.381, 1.381, 1.381, 1.381, 1.379, 1.379, 1.379, 1.379, 1.379, 1.377, 1.377, 1.377, 1.377, 1.377, 1.379, 1.386, 1.397, 1.406, 1.415, 1.427, 1.436, 1.448, 1.46, 1.471, 1.472, 1.473, 1.474, 1.475, 1.474, 1.474, 1.474, 1.474, 1.475, 1.476, 1.476, 1.476, 1.476, 1.476, 1.476, 1.476, 1.475, 1.474, 1.474, 1.474, 1.473, 1.472, 1.472, 1.472, 1.473, 1.473, 1.474, 1.474, 1.474, 1.474, 1.474, 1.474, 1.474, 1.474, 1.474, 1.474, 1.474, 1.474, 1.474, 1.474, 1.474, 1.474, 1.474, 1.474, 1.473, 1.473, 1.472, 1.472, 1.472, 1.472, 1.472, 1.472, 1.472, 1.472, 1.473, 1.474, 1.474, 1.474, 1.474, 1.474, 1.474, 1.474, 1.473, 1.472, 1.471, 1.468, 1.468, 1.468, 1.466, 1.466, 1.464, 1.464, 1.464, 1.464, 1.464, 1.464, 1.466, 1.466, 1.466, 1.468, 1.468, 1.469, 1.47, 1.47, 1.471, 1.472, 1.472, 1.472, 1.472, 1.472, 1.472, 1.472, 1.471, 1.468, 1.468, 1.466, 1.466, 1.466, 1.466, 1.466, 1.466, 1.466, 1.466, 1.466, 1.464, 1.464, 1.462, 1.462, 1.46, 1.458, 1.458, 1.458, 1.456, 1.454, 1.454, 1.454, 1.454, 1.454, 1.454, 1.454, 1.454
1.534, 1.535, 1.535, 1.535, 1.535, 1.535, 1.534, 1.533, 1.533, 1.532, 1.531, 1.531, 1.531, 1.531, 1.531, 1.531, 1.531, 1.531, 1.531, 1.531, 1.531, 1.528, 1.527, 1.526, 1.526, 1.525, 1.524, 1.524, 1.524, 1.524, 1.524, 1.524, 1.524, 1.524, 1.524, 1.525, 1.526, 1.526, 1.526, 1.527, 1.527, 1.528, 1.528, 1.531, 1.532, 1.533, 1.533, 1.532, 1.532, 1.527, 1.526, 1.524, 1.522, 1.52, 1.518, 1.517, 1.516, 1.516, 1.516, 1.516, 1.517, 1.518, 1.52, 1.521, 1.522, 1.522, 1.523, 1.523, 1.523, 1.523, 1.523, 1.523, 1.523, 1.523, 1.522, 1.522, 1.52, 1.519, 1.516, 1.512, 1.511, 1.507, 1.507, 1.507, 1.507, 1.507, 1.507, 1.507, 1.512, 1.512, 1.517, 1.518, 1.52, 1.521, 1.521, 1.52, 1.519, 1.518, 1.517, 1.513, 1.512, 1.511, 1.511, 1.511, 1.512, 1.512, 1.513, 1.516, 1.516, 1.516, 1.512, 1.512, 1.504, 1.494, 1.481, 1.468, 1.456, 1.444, 1.432, 1.423, 1.412, 1.406, 1.404, 1.404, 1.402, 1.402, 1.402, 1.402, 1.404, 1.404, 1.404, 1.404, 1.406, 1.406, 1.404, 1.404, 1.404, 1.402, 1.4, 1.4, 1.397, 1.397, 1.393, 1.393, 1.391, 1.39, 1.39, 1.39, 1.39, 1.39, 1.39, 1.39, 1.39, 1.39, 1.39, 1.39, 1.39, 1.39, 1.388, 1.388, 1.388, 1.39, 1.39, 1.391, 1.393, 1.393, 1.395, 1.395, 1.395, 1.395, 1.393, 1.393, 1.393, 1.391, 1.391, 1.391, 1.391, 1.391, 1.391, 1.391, 1.393, 1.393, 1.393, 1.393, 1.393, 1.393, 1.393, 1.393, 1.391, 1.39, 1.39, 1.388, 1.386, 1.386, 1.386, 1.386, 1.384, 1.384, 1.384, 1.384, 1.384, 1.384, 1.386, 1.386, 1.386, 1.388, 1.388, 1.388, 1.388, 1.388, 1.386, 1.386, 1.386, 1.386, 1.384, 1.384, 1.386, 1.386, 1.386, 1.386, 1.388, 1.388, 1.39, 1.39, 1.39, 1.39, 1.388, 1.388, 1.388, 1.388, 1.388, 1.386, 1.386, 1.386, 1.386, 1.386, 1.388, 1.388, 1.388, 1.39, 1.391, 1.393, 1.395, 1.395, 1.397, 1.397, 1.395, 1.393, 1.391, 1.39, 1.388, 1.388, 1.386, 1.386, 1.386, 1.388, 1.388, 1.388, 1.388, 1.39, 1.39, 1.388, 1.388, 1.386, 1.386, 1.384, 1.384, 1.382, 1.382, 1.382, 1.382, 1.382, 1.381, 1.381, 1.381, 1.381, 1.381, 1.381, 1.381, 1.381, 1.381, 1.381, 1.382, 1.382, 1.384, 1.384, 1.386, 1.386, 1.386, 1.386, 1.386, 1.386, 1.386, 1.386, 1.386, 1.386, 1.384, 1.382, 1.382, 1.382, 1.381, 1.381, 1.381, 1.381, 1.379, 1.379, 1.379, 1.379, 1.379, 1.379, 1.377, 1.377, 1.377, 1.377, 1.379, 1.386, 1.395, 1.404, 1.415, 1.425, 1.436, 1.448, 1.46, 1.471, 1.472, 1.473, 1.474, 1.475, 1.475, 1.474, 1.474, 1.475, 1.475, 1.476, 1.476, 1.476, 1.476, 1.476, 1.476, 1.476, 1.475, 1.474, 1.474, 1.474, 1.473, 1.472, 1.472, 1.472, 1.472, 1.472, 1.473, 1.473, 1.474, 1.474, 1.474, 1.474, 1.474, 1.474, 1.474, 1.474, 1.474, 1.474, 1.474, 1.474, 1.474, 1.474, 1.474, 1.474, 1.474, 1.474, 1.473, 1.473, 1.472, 1.472, 1.472, 1.472, 1.472, 1.472, 1.473, 1.473, 1.473, 1.473, 1.473, 1.473, 1.473, 1.473, 1.472, 1.472, 1.471, 1.468, 1.468, 1.468, 1.466, 1.464, 1.464, 1.464, 1.462, 1.462, 1.464, 1.464, 1.464, 1.466, 1.466, 1.466, 1.468, 1.469, 1.47, 1.47, 1.471, 1.472, 1.472, 1.472, 1.472, 1.472, 1.472, 1.472, 1.471, 1.471, 1.468, 1.468, 1.466, 1.466, 1.466, 1.466, 1.464, 1.464, 1.464, 1.464, 1.464, 1.464, 1.462, 1.462, 1.462, 1.46, 1.458, 1.458, 1.458, 1.456, 1.456, 1.456, 1.456, 1.456, 1.456, 1.456, 1.456
