1.571, 1.572, 1.576, 1.576, 1.576, 1.576, 1.572, 1.571, 1.569, 1.568, 1.567, 1.567, 1.567, 1.567, 1.567, 1.567, 1.567, 1.567, 1.564, 1.563, 1.563, 1.562, 1.562, 1.562, 1.562, 1.561, 1.561, 1.557, 1.557, 1.556, 1.555, 1.555, 1.553, 1.553, 1.553, 1.552, 1.552, 1.551, 1.551, 1.552, 1.551, 1.551, 1.551, 1.551, 1.548, 1.547, 1.546, 1.546, 1.546, 1.546, 1.546, 1.546, 1.547, 1.548, 1.551, 1.551, 1.552, 1.552, 1.552, 1.552, 1.551, 1.548, 1.547, 1.547, 1.546, 1.546, 1.545, 1.545, 1.544, 1.544, 1.544, 1.544, 1.544, 1.543, 1.542, 1.542, 1.542, 1.543, 1.543, 1.543, 1.544, 1.544, 1.544, 1.544, 1.544, 1.544, 1.543, 1.542, 1.542, 1.538, 1.537, 1.537, 1.536, 1.535, 1.534, 1.533, 1.533, 1.534, 1.534, 1.535, 1.536, 1.537, 1.537, 1.537, 1.537, 1.537, 1.537, 1.537, 1.537, 1.537, 1.537, 1.537, 1.537, 1.536, 1.536, 1.535, 1.535, 1.535, 1.535, 1.535, 1.535, 1.535, 1.536, 1.537, 1.536, 1.535, 1.533, 1.532, 1.528, 1.523, 1.522, 1.521, 1.52, 1.52, 1.52, 1.52, 1.521, 1.522, 1.524, 1.526, 1.527, 1.532, 1.533, 1.533, 1.533, 1.534, 1.534, 1.534, 1.533, 1.533, 1.532, 1.528, 1.527, 1.526, 1.524, 1.522, 1.521, 1.52, 1.52, 1.52, 1.52, 1.521, 1.521, 1.52, 1.519, 1.513, 1.505, 1.493, 1.483, 1.471, 1.46, 1.448, 1.44, 1.432, 1.429, 1.423, 1.421, 1.419, 1.417, 1.417, 1.415, 1.415, 1.413, 1.412, 1.412, 1.412, 1.412, 1.41, 1.41, 1.41, 1.412, 1.412, 1.412, 1.412, 1.412, 1.412, 1.412, 1.412, 1.412, 1.412, 1.412, 1.412, 1.412, 1.412, 1.412, 1.41, 1.408, 1.408, 1.408, 1.408, 1.406, 1.406, 1.406, 1.406, 1.406, 1.408, 1.408, 1.408, 1.408, 1.408, 1.408, 1.408, 1.408, 1.408, 1.406, 1.406, 1.406, 1.406, 1.406, 1.406, 1.404, 1.404, 1.404, 1.404, 1.404, 1.404, 1.404, 1.404, 1.404, 1.402, 1.402, 1.4, 1.4, 1.4, 1.4, 1.4, 1.4, 1.402, 1.402, 1.404, 1.406, 1.406, 1.406, 1.406, 1.406, 1.406, 1.406, 1.406, 1.404, 1.402, 1.4, 1.4, 1.4, 1.399, 1.399, 1.399, 1.399, 1.399, 1.399, 1.4, 1.4, 1.4, 1.399, 1.399, 1.397, 1.397, 1.395, 1.393, 1.393, 1.393, 1.391, 1.391, 1.391, 1.393, 1.393, 1.393, 1.395, 1.395, 1.397, 1.397, 1.399, 1.399, 1.399, 1.399, 1.399, 1.399, 1.4, 1.4, 1.4, 1.402, 1.402, 1.402, 1.402, 1.402, 1.4, 1.4, 1.4, 1.4, 1.4, 1.4, 1.4, 1.4, 1.4, 1.399, 1.399, 1.397, 1.395, 1.393, 1.393, 1.391, 1.391, 1.391, 1.391, 1.391, 1.391, 1.391, 1.391, 1.393, 1.393, 1.395, 1.397, 1.4, 1.404, 1.412, 1.417, 1.427, 1.434, 1.444, 1.454, 1.462, 1.468, 1.474, 1.478, 1.483, 1.484, 1.485, 1.486, 1.486, 1.485, 1.485, 1.484, 1.484, 1.483, 1.482, 1.482, 1.481, 1.481, 1.48, 1.48, 1.48, 1.48, 1.48, 1.48, 1.48, 1.48, 1.479, 1.479, 1.478, 1.478, 1.478, 1.478, 1.478, 1.478, 1.478, 1.478, 1.478, 1.478, 1.478, 1.478, 1.477, 1.476, 1.474, 1.473, 1.472, 1.47, 1.47, 1.47, 1.47, 1.47, 1.471, 1.472, 1.473, 1.475, 1.476, 1.477, 1.478, 1.479, 1.479, 1.48, 1.479, 1.478, 1.478, 1.477, 1.476, 1.476, 1.476, 1.475, 1.474, 1.474, 1.473, 1.472, 1.471, 1.471, 1.47, 1.468, 1.468, 1.468, 1.468, 1.468, 1.468, 1.47, 1.47, 1.47, 1.471, 1.471, 1.471, 1.471, 1.47, 1.47, 1.469, 1.469, 1.468, 1.468, 1.468, 1.468, 1.468, 1.468, 1.468, 1.468, 1.468, 1.468, 1.466, 1.466
1.571, 1.572, 1.577, 1.577, 1.577, 1.577, 1.572, 1.571, 1.57, 1.569, 1.568, 1.567, 1.567, 1.567, 1.567, 1.567, 1.567, 1.567, 1.564, 1.564, 1.564, 1.563, 1.563, 1.563, 1.562, 1.562, 1.561, 1.56, 1.56, 1.556, 1.555, 1.554, 1.553, 1.553, 1.552, 1.552, 1.551, 1.551, 1.551, 1.552, 1.552, 1.551, 1.551, 1.551, 1.551, 1.547, 1.547, 1.546, 1.546, 1.546, 1.546, 1.546, 1.547, 1.548, 1.548, 1.551, 1.551, 1.551, 1.551, 1.551, 1.548, 1.547, 1.546, 1.546, 1.545, 1.544, 1.544, 1.544, 1.544, 1.544, 1.544, 1.544, 1.544, 1.543, 1.543, 1.543, 1.543, 1.543, 1.543, 1.544, 1.544, 1.544, 1.544, 1.544, 1.544, 1.544, 1.543, 1.542, 1.542, 1.538, 1.537, 1.536, 1.535, 1.534, 1.533, 1.533, 1.533, 1.533, 1.534, 1.535, 1.535, 1.536, 1.537, 1.537, 1.537, 1.537, 1.537, 1.537, 1.537, 1.537, 1.538, 1.538, 1.537, 1.537, 1.536, 1.535, 1.535, 1.535, 1.535, 1.535, 1.535, 1.535, 1.536, 1.537, 1.536, 1.535, 1.533, 1.532, 1.527, 1.523, 1.522, 1.52, 1.52, 1.519, 1.519, 1.519, 1.52, 1.522, 1.524, 1.526, 1.527, 1.532, 1.533, 1.533, 1.533, 1.534, 1.534, 1.533, 1.533, 1.533, 1.532, 1.528, 1.527, 1.526, 1.524, 1.522, 1.521, 1.52, 1.52, 1.52, 1.521, 1.522, 1.522, 1.521, 1.52, 1.517, 1.507, 1.499, 1.484, 1.471, 1.462, 1.45, 1.442, 1.434, 1.429, 1.425, 1.423, 1.421, 1.419, 1.417, 1.415, 1.415, 1.413, 1.412, 1.412, 1.412, 1.412, 1.41, 1.41, 1.41, 1.412, 1.412, 1.412, 1.412, 1.412, 1.412, 1.412, 1.412, 1.412, 1.412, 1.412, 1.412, 1.412, 1.412, 1.412, 1.41, 1.408, 1.408, 1.408, 1.408, 1.408, 1.408, 1.408, 1.408, 1.408, 1.408, 1.41, 1.41, 1.41, 1.408, 1.408, 1.408, 1.408, 1.408, 1.406, 1.406, 1.406, 1.406, 1.406, 1.406, 1.404, 1.404, 1.404, 1.404, 1.404, 1.404, 1.404, 1.404, 1.404, 1.402, 1.402, 1.4, 1.4, 1.4, 1.4, 1.4, 1.4, 1.402, 1.402, 1.404, 1.406, 1.406, 1.406, 1.406, 1.406, 1.406, 1.406, 1.406, 1.404, 1.402, 1.4, 1.4, 1.399, 1.399, 1.397, 1.397, 1.397, 1.397, 1.397, 1.399, 1.399, 1.399, 1.399, 1.397, 1.397, 1.397, 1.395, 1.393, 1.393, 1.393, 1.391, 1.391, 1.393, 1.393, 1.393, 1.393, 1.395, 1.397, 1.397, 1.399, 1.399, 1.399, 1.399, 1.399, 1.399, 1.399, 1.4, 1.4, 1.4, 1.402, 1.404, 1.404, 1.404, 1.402, 1.402, 1.402, 1.4, 1.4, 1.4, 1.4, 1.4, 1.4, 1.4, 1.399, 1.399, 1.397, 1.397, 1.395, 1.393, 1.393, 1.393, 1.393, 1.393, 1.393, 1.393, 1.393, 1.393, 1.395, 1.395, 1.397, 1.4, 1.402, 1.41, 1.415, 1.425, 1.432, 1.442, 1.452, 1.46, 1.468, 1.474, 1.481, 1.482, 1.483, 1.486, 1.487, 1.487, 1.487, 1.486, 1.486, 1.485, 1.484, 1.484, 1.483, 1.482, 1.482, 1.482, 1.481, 1.481, 1.481, 1.481, 1.481, 1.48, 1.48, 1.48, 1.48, 1.479, 1.479, 1.479, 1.478, 1.478, 1.478, 1.478, 1.478, 1.478, 1.478, 1.478, 1.478, 1.478, 1.477, 1.476, 1.474, 1.473, 1.472, 1.47, 1.469, 1.469, 1.468, 1.468, 1.47, 1.471, 1.472, 1.474, 1.475, 1.476, 1.477, 1.478, 1.479, 1.479, 1.479, 1.478, 1.478, 1.477, 1.476, 1.476, 1.476, 1.475, 1.474, 1.474, 1.473, 1.472, 1.471, 1.47, 1.47, 1.47, 1.468, 1.468, 1.468, 1.468, 1.47, 1.47, 1.47, 1.471, 1.471, 1.472, 1.472, 1.471, 1.471, 1.47, 1.47, 1.469, 1.469, 1.468, 1.468, 1.468, 1.468, 1.468, 1.468, 1.468, 1.468, 1.466, 1.466, 1.466
1.572, 1.577, 1.577, 1.578, 1.577, 1.577, 1.572, 1.571, 1.57, 1.569, 1.568, 1.568, 1.568, 1.567, 1.567, 1.567, 1.567, 1.567, 1.567, 1.564, 1.564, 1.564, 1.564, 1.563, 1.563, 1.562, 1.562, 1.561, 1.56, 1.556, 1.555, 1.554, 1.553, 1.552, 1.551, 1.551, 1.551, 1.551, 1.551, 1.552, 1.552, 1.552, 1.552, 1.551, 1.551, 1.548, 1.547, 1.546, 1.546, 1.546, 1.546, 1.546, 1.547, 1.548, 1.548, 1.551, 1.551, 1.551, 1.551, 1.551, 1.547, 1.546, 1.545, 1.544, 1.544, 1.544, 1.544, 1.544, 1.544, 1.544, 1.544, 1.544, 1.544, 1.543, 1.543, 1.543, 1.543, 1.544, 1.544, 1.544, 1.544, 1.544, 1.544, 1.544, 1.544, 1.543, 1.543, 1.542, 1.539, 1.538, 1.537, 1.536, 1.535, 1.534, 1.533, 1.533, 1.533, 1.533, 1.534, 1.535, 1.535, 1.536, 1.537, 1.537, 1.537, 1.537, 1.537, 1.537, 1.537, 1.538, 1.538, 1.538, 1.538, 1.537, 1.536, 1.535, 1.535, 1.535, 1.535, 1.535, 1.535, 1.535, 1.536, 1.536, 1.536, 1.535, 1.533, 1.532, 1.526, 1.523, 1.522, 1.52, 1.519, 1.518, 1.518, 1.519, 1.52, 1.522, 1.524, 1.526, 1.527, 1.532, 1.533, 1.533, 1.533, 1.534, 1.534, 1.533, 1.533, 1.533, 1.532, 1.528, 1.527, 1.526, 1.524, 1.523, 1.522, 1.521, 1.52, 1.521, 1.522, 1.523, 1.523, 1.524, 1.521, 1.518, 1.509, 1.5, 1.486, 1.477, 1.464, 1.452, 1.444, 1.436, 1.43, 1.425, 1.423, 1.421, 1.419, 1.417, 1.417, 1.415, 1.415, 1.413, 1.412, 1.412, 1.412, 1.412, 1.41, 1.41, 1.412, 1.412, 1.412, 1.412, 1.412, 1.412, 1.412, 1.412, 1.412, 1.412, 1.412, 1.412, 1.412, 1.412, 1.41, 1.41, 1.408, 1.408, 1.408, 1.408, 1.408, 1.408, 1.408, 1.408, 1.408, 1.41, 1.41, 1.41, 1.41, 1.41, 1.408, 1.408, 1.408, 1.408, 1.406, 1.406, 1.406, 1.406, 1.406, 1.406, 1.406, 1.406, 1.406, 1.406, 1.404, 1.404, 1.404, 1.404, 1.404, 1.404, 1.402, 1.402, 1.4, 1.4, 1.4, 1.4, 1.4, 1.402, 1.402, 1.404, 1.404, 1.406, 1.406, 1.406, 1.406, 1.406, 1.406, 1.404, 1.402, 1.4, 1.4, 1.399, 1.397, 1.397, 1.397, 1.397, 1.397, 1.397, 1.397, 1.397, 1.399, 1.399, 1.399, 1.397, 1.397, 1.397, 1.395, 1.393, 1.393, 1.393, 1.393, 1.393, 1.393, 1.393, 1.393, 1.395, 1.395, 1.397, 1.397, 1.399, 1.399, 1.399, 1.399, 1.399, 1.399, 1.399, 1.4, 1.4, 1.4, 1.402, 1.404, 1.404, 1.404, 1.404, 1.404, 1.402, 1.402, 1.402, 1.402, 1.402, 1.402, 1.4, 1.4, 1.399, 1.399, 1.399, 1.397, 1.397, 1.395, 1.395, 1.395, 1.395, 1.395, 1.395, 1.395, 1.395, 1.395, 1.397, 1.399, 1.4, 1.404, 1.408, 1.415, 1.421, 1.43, 1.44, 1.448, 1.456, 1.466, 1.474, 1.478, 1.481, 1.487, 1.488, 1.488, 1.488, 1.488, 1.487, 1.487, 1.486, 1.486, 1.485, 1.484, 1.484, 1.483, 1.482, 1.482, 1.482, 1.482, 1.482, 1.482, 1.482, 1.481, 1.481, 1.481, 1.48, 1.48, 1.48, 1.48, 1.479, 1.479, 1.479, 1.479, 1.478, 1.478, 1.478, 1.478, 1.478, 1.477, 1.476, 1.475, 1.474, 1.473, 1.472, 1.471, 1.468, 1.468, 1.468, 1.468, 1.468, 1.471, 1.471, 1.472, 1.474, 1.475, 1.476, 1.477, 1.478, 1.478, 1.479, 1.478, 1.478, 1.477, 1.477, 1.476, 1.476, 1.475, 1.474, 1.474, 1.473, 1.472, 1.471, 1.47, 1.47, 1.47, 1.468, 1.468, 1.468, 1.47, 1.47, 1.47, 1.471, 1.471, 1.472, 1.472, 1.472, 1.472, 1.471, 1.471, 1.47, 1.47, 1.469, 1.469, 1.468, 1.468, 1.468, 1.468, 1.468, 1.468, 1.466, 1.466, 1.466, 1.466
1.572, 1.577, 1.578, 1.578, 1.578, 1.577, 1.573, 1.572, 1.571, 1.57, 1.569, 1.569, 1.568, 1.568, 1.568, 1.568, 1.568, 1.568, 1.568, 1.568, 1.568, 1.568, 1.568, 1.568, 1.568, 1.563, 1.562, 1.561, 1.561, 1.556, 1.555, 1.554, 1.553, 1.552, 1.551, 1.551, 1.551, 1.551, 1.551, 1.552, 1.552, 1.552, 1.552, 1.552, 1.551, 1.551, 1.547, 1.546, 1.546, 1.546, 1.546, 1.546, 1.547, 1.548, 1.548, 1.551, 1.551, 1.551, 1.548, 1.547, 1.546, 1.545, 1.544, 1.543, 1.543, 1.543, 1.543, 1.543, 1.543, 1.543, 1.543, 1.543, 1.544, 1.543, 1.543, 1.543, 1.544, 1.544, 1.544, 1.544, 1.544, 1.544, 1.544, 1.544, 1.544, 1.543, 1.542, 1.542, 1.538, 1.538, 1.537, 1.535, 1.534, 1.533, 1.533, 1.533, 1.533, 1.533, 1.534, 1.535, 1.535, 1.536, 1.537, 1.537, 1.537, 1.537, 1.537, 1.537, 1.538, 1.538, 1.539, 1.539, 1.538, 1.537, 1.536, 1.535, 1.535, 1.535, 1.535, 1.535, 1.535, 1.535, 1.535, 1.536, 1.536, 1.535, 1.533, 1.532, 1.525, 1.524, 1.522, 1.52, 1.519, 1.518, 1.518, 1.519, 1.52, 1.522, 1.524, 1.526, 1.527, 1.532, 1.533, 1.533, 1.533, 1.534, 1.534, 1.533, 1.533, 1.533, 1.532, 1.528, 1.527, 1.526, 1.524, 1.523, 1.522, 1.521, 1.521, 1.522, 1.522, 1.523, 1.524, 1.525, 1.522, 1.518, 1.51, 1.501, 1.488, 1.478, 1.466, 1.454, 1.444, 1.438, 1.43, 1.427, 1.425, 1.421, 1.419, 1.419, 1.417, 1.415, 1.415, 1.413, 1.412, 1.412, 1.412, 1.412, 1.41, 1.41, 1.412, 1.412, 1.412, 1.412, 1.412, 1.412, 1.412, 1.412, 1.412, 1.412, 1.412, 1.412, 1.412, 1.412, 1.41, 1.41, 1.408, 1.408, 1.408, 1.408, 1.408, 1.408, 1.408, 1.41, 1.41, 1.41, 1.41, 1.41, 1.41, 1.41, 1.408, 1.408, 1.408, 1.408, 1.406, 1.406, 1.406, 1.406, 1.406, 1.406, 1.406, 1.406, 1.406, 1.406, 1.404, 1.404, 1.404, 1.404, 1.404, 1.404, 1.402, 1.402, 1.402, 1.402, 1.4, 1.4, 1.402, 1.402, 1.402, 1.404, 1.404, 1.404, 1.406, 1.406, 1.406, 1.406, 1.404, 1.402, 1.402, 1.4, 1.399, 1.397, 1.397, 1.397, 1.397, 1.397, 1.397, 1.397, 1.397, 1.397, 1.397, 1.399, 1.397, 1.397, 1.397, 1.397, 1.395, 1.393, 1.393, 1.393, 1.393, 1.393, 1.393, 1.393, 1.395, 1.395, 1.397, 1.397, 1.397, 1.399, 1.399, 1.399, 1.399, 1.399, 1.399, 1.399, 1.4, 1.4, 1.4, 1.402, 1.404, 1.404, 1.404, 1.406, 1.406, 1.404, 1.404, 1.404, 1.404, 1.404, 1.402, 1.402, 1.4, 1.4, 1.399, 1.399, 1.399, 1.397, 1.397, 1.397, 1.397, 1.397, 1.397, 1.399, 1.399, 1.399, 1.399, 1.4, 1.402, 1.404, 1.408, 1.413, 1.421, 1.429, 1.436, 1.446, 1.454, 1.464, 1.472, 1.478, 1.482, 1.487, 1.488, 1.489, 1.489, 1.489, 1.489, 1.488, 1.487, 1.487, 1.486, 1.486, 1.485, 1.484, 1.484, 1.483, 1.483, 1.483, 1.482, 1.482, 1.482, 1.482, 1.482, 1.482, 1.482, 1.482, 1.481, 1.481, 1.481, 1.48, 1.48, 1.48, 1.48, 1.479, 1.479, 1.479, 1.478, 1.478, 1.477, 1.476, 1.475, 1.474, 1.473, 1.472, 1.471, 1.468, 1.468, 1.468, 1.468, 1.468, 1.468, 1.471, 1.472, 1.473, 1.474, 1.475, 1.476, 1.477, 1.478, 1.478, 1.478, 1.478, 1.478, 1.477, 1.476, 1.476, 1.475, 1.474, 1.474, 1.473, 1.472, 1.471, 1.47, 1.47, 1.47, 1.47, 1.47, 1.47, 1.47, 1.471, 1.471, 1.471, 1.472, 1.472, 1.472, 1.472, 1.472, 1.472, 1.471, 1.47, 1.47, 1.47, 1.47, 1.469, 1.468, 1.468, 1.468, 1.468, 1.466, 1.466, 1.466, 1.466, 1.466
1.572, 1.577, 1.578, 1.579, 1.578, 1.578, 1.577, 1.572, 1.571, 1.57, 1.569, 1.569, 1.569, 1.569, 1.569, 1.569, 1.569, 1.569, 1.569, 1.569, 1.569, 1.569, 1.569, 1.569, 1.568, 1.568, 1.563, 1.562, 1.561, 1.556, 1.555, 1.553, 1.552, 1.552, 1.551, 1.551, 1.551, 1.551, 1.551, 1.551, 1.552, 1.552, 1.552, 1.552, 1.551, 1.551, 1.547, 1.547, 1.546, 1.546, 1.547, 1.547, 1.547, 1.548, 1.548, 1.551, 1.551, 1.548, 1.548, 1.547, 1.546, 1.544, 1.543, 1.543, 1.542, 1.542, 1.542, 1.542, 1.542, 1.542, 1.542, 1.543, 1.543, 1.543, 1.543, 1.543, 1.544, 1.544, 1.544, 1.544, 1.544, 1.544, 1.544, 1.544, 1.544, 1.543, 1.542, 1.539, 1.538, 1.537, 1.536, 1.535, 1.534, 1.533, 1.533, 1.533, 1.533, 1.533, 1.534, 1.535, 1.535, 1.536, 1.537, 1.537, 1.537, 1.537, 1.537, 1.537, 1.538, 1.539, 1.539, 1.539, 1.538, 1.537, 1.537, 1.536, 1.535, 1.535, 1.535, 1.535, 1.535, 1.535, 1.535, 1.535, 1.535, 1.535, 1.532, 1.527, 1.526, 1.524, 1.522, 1.52, 1.519, 1.518, 1.518, 1.519, 1.52, 1.522, 1.524, 1.526, 1.527, 1.528, 1.533, 1.533, 1.533, 1.534, 1.534, 1.533, 1.533, 1.533, 1.532, 1.528, 1.527, 1.526, 1.524, 1.523, 1.523, 1.522, 1.522, 1.522, 1.523, 1.524, 1.525, 1.525, 1.522, 1.518, 1.511, 1.503, 1.49, 1.479, 1.468, 1.456, 1.446, 1.438, 1.432, 1.427, 1.425, 1.421, 1.421, 1.419, 1.419, 1.415, 1.415, 1.415, 1.413, 1.412, 1.412, 1.412, 1.412, 1.412, 1.412, 1.412, 1.412, 1.412, 1.412, 1.412, 1.412, 1.412, 1.412, 1.412, 1.412, 1.412, 1.412, 1.41, 1.41, 1.41, 1.41, 1.408, 1.408, 1.408, 1.408, 1.41, 1.41, 1.41, 1.41, 1.41, 1.41, 1.41, 1.41, 1.41, 1.41, 1.408, 1.408, 1.408, 1.406, 1.406, 1.406, 1.406, 1.406, 1.406, 1.406, 1.406, 1.406, 1.406, 1.404, 1.404, 1.404, 1.404, 1.404, 1.404, 1.402, 1.402, 1.402, 1.402, 1.402, 1.402, 1.402, 1.402, 1.402, 1.404, 1.404, 1.404, 1.404, 1.406, 1.406, 1.404, 1.404, 1.402, 1.4, 1.4, 1.399, 1.397, 1.397, 1.395, 1.395, 1.395, 1.395, 1.395, 1.397, 1.397, 1.397, 1.397, 1.397, 1.397, 1.397, 1.397, 1.395, 1.395, 1.393, 1.393, 1.393, 1.393, 1.393, 1.395, 1.395, 1.397, 1.397, 1.397, 1.399, 1.399, 1.399, 1.399, 1.399, 1.399, 1.399, 1.399, 1.4, 1.4, 1.4, 1.402, 1.404, 1.404, 1.406, 1.408, 1.408, 1.408, 1.408, 1.408, 1.406, 1.406, 1.404, 1.404, 1.402, 1.402, 1.4, 1.4, 1.399, 1.399, 1.399, 1.399, 1.399, 1.399, 1.4, 1.4, 1.402, 1.402, 1.404, 1.404, 1.408, 1.41, 1.413, 1.421, 1.429, 1.436, 1.444, 1.454, 1.462, 1.47, 1.476, 1.482, 1.487, 1.488, 1.49, 1.49, 1.491, 1.49, 1.49, 1.489, 1.488, 1.488, 1.487, 1.486, 1.486, 1.485, 1.485, 1.484, 1.484, 1.484, 1.484, 1.484, 1.484, 1.484, 1.483, 1.483, 1.483, 1.483, 1.482, 1.482, 1.482, 1.482, 1.481, 1.481, 1.481, 1.48, 1.48, 1.479, 1.479, 1.478, 1.478, 1.476, 1.476, 1.474, 1.473, 1.472, 1.47, 1.469, 1.468, 1.468, 1.468, 1.468, 1.468, 1.468, 1.471, 1.472, 1.473, 1.474, 1.475, 1.476, 1.477, 1.478, 1.478, 1.478, 1.478, 1.477, 1.476, 1.476, 1.475, 1.474, 1.474, 1.473, 1.472, 1.471, 1.471, 1.47, 1.47, 1.47, 1.47, 1.47, 1.471, 1.471, 1.472, 1.472, 1.472, 1.472, 1.472, 1.472, 1.472, 1.471, 1.471, 1.47, 1.47, 1.47, 1.47, 1.469, 1.468, 1.468, 1.468, 1.468, 1.466, 1.466, 1.466, 1.466, 1.466
1.577, 1.578, 1.579, 1.579, 1.579, 1.578, 1.577, 1.577, 1.572, 1.571, 1.57, 1.57, 1.57, 1.569, 1.569, 1.57, 1.57, 1.57, 1.57, 1.57, 1.571, 1.571, 1.571, 1.57, 1.569, 1.568, 1.563, 1.562, 1.561, 1.556, 1.555, 1.553, 1.552, 1.551, 1.548, 1.548, 1.548, 1.548, 1.548, 1.551, 1.551, 1.551, 1.551, 1.551, 1.551, 1.551, 1.547, 1.547, 1.546, 1.547, 1.547, 1.548, 1.548, 1.548, 1.548, 1.551, 1.548, 1.548, 1.547, 1.546, 1.545, 1.543, 1.542, 1.542, 1.539, 1.539, 1.539, 1.539, 1.542, 1.542, 1.542, 1.542, 1.542, 1.542, 1.543, 1.543, 1.544, 1.544, 1.544, 1.544, 1.544, 1.544, 1.544, 1.544, 1.543, 1.543, 1.542, 1.538, 1.538, 1.537, 1.536, 1.535, 1.534, 1.533, 1.533, 1.533, 1.533, 1.533, 1.534, 1.535, 1.535, 1.536, 1.537, 1.537, 1.537, 1.537, 1.537, 1.538, 1.538, 1.539, 1.539, 1.539, 1.538, 1.537, 1.537, 1.536, 1.535, 1.535, 1.535, 1.535, 1.535, 1.535, 1.535, 1.535, 1.535, 1.535, 1.532, 1.527, 1.526, 1.524, 1.522, 1.52, 1.519, 1.518, 1.518, 1.519, 1.52, 1.522, 1.524, 1.526, 1.527, 1.528, 1.533, 1.533, 1.533, 1.534, 1.534, 1.533, 1.533, 1.533, 1.532, 1.528, 1.527, 1.526, 1.525, 1.524, 1.523, 1.523, 1.523, 1.523, 1.524, 1.524, 1.525, 1.526, 1.524, 1.52, 1.512, 1.504, 1.491, 1.48, 1.468, 1.458, 1.448, 1.44, 1.432, 1.429, 1.425, 1.423, 1.421, 1.419, 1.419, 1.417, 1.415, 1.415, 1.413, 1.413, 1.412, 1.412, 1.412, 1.412, 1.412, 1.412, 1.412, 1.412, 1.412, 1.412, 1.412, 1.412, 1.412, 1.412, 1.412, 1.412, 1.412, 1.41, 1.41, 1.41, 1.41, 1.41, 1.41, 1.41, 1.41, 1.41, 1.41, 1.41, 1.41, 1.41, 1.41, 1.41, 1.41, 1.41, 1.41, 1.408, 1.408, 1.408, 1.408, 1.406, 1.406, 1.406, 1.406, 1.406, 1.406, 1.406, 1.406, 1.406, 1.406, 1.406, 1.404, 1.404, 1.404, 1.404, 1.404, 1.402, 1.402, 1.402, 1.402, 1.402, 1.402, 1.402, 1.402, 1.404, 1.404, 1.404, 1.404, 1.404, 1.404, 1.404, 1.402, 1.402, 1.4, 1.4, 1.397, 1.397, 1.395, 1.393, 1.393, 1.393, 1.393, 1.395, 1.395, 1.397, 1.397, 1.397, 1.397, 1.397, 1.397, 1.397, 1.397, 1.395, 1.395, 1.395, 1.395, 1.395, 1.395, 1.395, 1.397, 1.397, 1.397, 1.397, 1.399, 1.399, 1.399, 1.399, 1.399, 1.399, 1.399, 1.399, 1.4, 1.4, 1.4, 1.402, 1.404, 1.406, 1.406, 1.408, 1.41, 1.41, 1.41, 1.41, 1.41, 1.408, 1.408, 1.406, 1.404, 1.404, 1.402, 1.4, 1.4, 1.4, 1.4, 1.4, 1.402, 1.404, 1.404, 1.406, 1.406, 1.408, 1.408, 1.41, 1.413, 1.417, 1.421, 1.427, 1.434, 1.442, 1.452, 1.46, 1.468, 1.474, 1.48, 1.487, 1.488, 1.49, 1.491, 1.492, 1.492, 1.491, 1.491, 1.49, 1.489, 1.488, 1.488, 1.487, 1.486, 1.486, 1.485, 1.485, 1.484, 1.484, 1.484, 1.484, 1.484, 1.484, 1.484, 1.484, 1.484, 1.484, 1.483, 1.483, 1.483, 1.482, 1.482, 1.482, 1.482, 1.482, 1.481, 1.48, 1.48, 1.479, 1.478, 1.477, 1.476, 1.474, 1.473, 1.472, 1.47, 1.47, 1.469, 1.468, 1.468, 1.468, 1.468, 1.468, 1.468, 1.471, 1.472, 1.473, 1.474, 1.475, 1.476, 1.477, 1.478, 1.477, 1.477, 1.477, 1.476, 1.475, 1.475, 1.474, 1.474, 1.473, 1.472, 1.472, 1.471, 1.471, 1.471, 1.471, 1.471, 1.471, 1.471, 1.472, 1.472, 1.472, 1.472, 1.472, 1.472, 1.472, 1.471, 1.471, 1.47, 1.47, 1.47, 1.47, 1.469, 1.469, 1.468, 1.468, 1.468, 1.466, 1.466, 1.466, 1.466, 1.466, 1.466
1.577, 1.578, 1.579, 1.583, 1.583, 1.579, 1.578, 1.577, 1.576, 1.572, 1.571, 1.571, 1.571, 1.571, 1.571, 1.571, 1.571, 1.571, 1.571, 1.571, 1.572, 1.572, 1.572, 1.571, 1.571, 1.569, 1.568, 1.563, 1.561, 1.556, 1.555, 1.553, 1.552, 1.548, 1.548, 1.548, 1.548, 1.548, 1.548, 1.551, 1.551, 1.551, 1.551, 1.551, 1.551, 1.551, 1.548, 1.547, 1.547, 1.547, 1.548, 1.548, 1.548, 1.548, 1.548, 1.551, 1.548, 1.548, 1.547, 1.545, 1.544, 1.543, 1.542, 1.539, 1.539, 1.539, 1.539, 1.539, 1.539, 1.539, 1.542, 1.542, 1.542, 1.542, 1.543, 1.543, 1.544, 1.544, 1.544, 1.544, 1.544, 1.544, 1.544, 1.544, 1.543, 1.543, 1.539, 1.538, 1.537, 1.537, 1.536, 1.535, 1.534, 1.533, 1.533, 1.533, 1.533, 1.533, 1.534, 1.535, 1.535, 1.536, 1.537, 1.537, 1.537, 1.537, 1.537, 1.538, 1.539, 1.539, 1.539, 1.539, 1.538, 1.537, 1.537, 1.536, 1.535, 1.535, 1.535, 1.535, 1.535, 1.535, 1.535, 1.535, 1.535, 1.534, 1.531, 1.527, 1.526, 1.524, 1.522, 1.521, 1.52, 1.519, 1.519, 1.52, 1.521, 1.522, 1.524, 1.526, 1.527, 1.528, 1.533, 1.533, 1.534, 1.534, 1.534, 1.533, 1.533, 1.533, 1.532, 1.528, 1.527, 1.526, 1.525, 1.524, 1.524, 1.524, 1.524, 1.524, 1.524, 1.525, 1.526, 1.526, 1.524, 1.52, 1.513, 1.505, 1.492, 1.481, 1.47, 1.46, 1.448, 1.442, 1.434, 1.429, 1.427, 1.423, 1.421, 1.419, 1.419, 1.417, 1.415, 1.415, 1.413, 1.413, 1.413, 1.412, 1.412, 1.412, 1.412, 1.412, 1.412, 1.412, 1.412, 1.412, 1.412, 1.412, 1.412, 1.412, 1.412, 1.412, 1.412, 1.41, 1.41, 1.41, 1.41, 1.41, 1.41, 1.41, 1.41, 1.41, 1.41, 1.41, 1.41, 1.41, 1.41, 1.41, 1.41, 1.41, 1.41, 1.41, 1.408, 1.408, 1.408, 1.408, 1.406, 1.406, 1.406, 1.406, 1.406, 1.406, 1.406, 1.406, 1.406, 1.406, 1.406, 1.404, 1.404, 1.404, 1.404, 1.404, 1.404, 1.404, 1.402, 1.402, 1.404, 1.404, 1.404, 1.404, 1.404, 1.404, 1.404, 1.404, 1.404, 1.404, 1.402, 1.4, 1.4, 1.397, 1.397, 1.395, 1.393, 1.393, 1.393, 1.393, 1.393, 1.393, 1.393, 1.397, 1.397, 1.397, 1.397, 1.397, 1.397, 1.397, 1.397, 1.397, 1.395, 1.395, 1.395, 1.395, 1.397, 1.397, 1.397, 1.397, 1.397, 1.399, 1.399, 1.399, 1.399, 1.399, 1.399, 1.399, 1.399, 1.399, 1.4, 1.4, 1.4, 1.402, 1.404, 1.406, 1.406, 1.408, 1.41, 1.41, 1.412, 1.412, 1.412, 1.41, 1.41, 1.408, 1.406, 1.406, 1.404, 1.404, 1.404, 1.404, 1.404, 1.406, 1.408, 1.41, 1.41, 1.412, 1.413, 1.415, 1.415, 1.417, 1.421, 1.425, 1.429, 1.436, 1.442, 1.45, 1.458, 1.466, 1.474, 1.478, 1.484, 1.489, 1.49, 1.492, 1.493, 1.493, 1.493, 1.492, 1.492, 1.491, 1.49, 1.489, 1.488, 1.488, 1.487, 1.486, 1.486, 1.486, 1.485, 1.485, 1.485, 1.485, 1.485, 1.486, 1.486, 1.486, 1.486, 1.485, 1.485, 1.484, 1.484, 1.484, 1.484, 1.483, 1.483, 1.482, 1.482, 1.481, 1.48, 1.48, 1.478, 1.477, 1.476, 1.474, 1.473, 1.472, 1.471, 1.47, 1.469, 1.468, 1.468, 1.468, 1.468, 1.468, 1.468, 1.468, 1.471, 1.472, 1.473, 1.474, 1.475, 1.476, 1.477, 1.476, 1.476, 1.476, 1.475, 1.475, 1.474, 1.474, 1.474, 1.474, 1.473, 1.472, 1.472, 1.472, 1.472, 1.472, 1.472, 1.472, 1.472, 1.473, 1.473, 1.473, 1.472, 1.472, 1.472, 1.471, 1.471, 1.47, 1.47, 1.47, 1.469, 1.469, 1.469, 1.468, 1.468, 1.468, 1.466, 1.466, 1.466, 1.466, 1.466, 1.466, 1.466
1.577, 1.578, 1.579, 1.583, 1.583, 1.58, 1.579, 1.578, 1.577, 1.576, 1.572, 1.572, 1.571, 1.571, 1.571, 1.572, 1.572, 1.572, 1.572, 1.572, 1.576, 1.576, 1.573, 1.572, 1.572, 1.571, 1.569, 1.563, 1.562, 1.556, 1.555, 1.553, 1.552, 1.548, 1.548, 1.548, 1.548, 1.548, 1.548, 1.548, 1.551, 1.551, 1.551, 1.551, 1.551, 1.551, 1.548, 1.548, 1.548, 1.548, 1.548, 1.548, 1.548, 1.548, 1.548, 1.548, 1.548, 1.547, 1.546, 1.545, 1.544, 1.543, 1.539, 1.539, 1.539, 1.539, 1.539, 1.539, 1.539, 1.539, 1.539, 1.539, 1.542, 1.542, 1.543, 1.544, 1.544, 1.544, 1.544, 1.544, 1.544, 1.544, 1.543, 1.543, 1.543, 1.542, 1.539, 1.538, 1.537, 1.536, 1.535, 1.534, 1.533, 1.533, 1.533, 1.533, 1.533, 1.533, 1.534, 1.535, 1.535, 1.536, 1.537, 1.537, 1.537, 1.537, 1.537, 1.538, 1.539, 1.539, 1.539, 1.539, 1.538, 1.537, 1.537, 1.536, 1.535, 1.535, 1.534, 1.534, 1.534, 1.534, 1.534, 1.534, 1.534, 1.533, 1.532, 1.528, 1.527, 1.524, 1.522, 1.521, 1.52, 1.52, 1.52, 1.52, 1.521, 1.522, 1.523, 1.527, 1.527, 1.532, 1.533, 1.533, 1.534, 1.535, 1.534, 1.533, 1.533, 1.533, 1.532, 1.528, 1.527, 1.526, 1.525, 1.524, 1.524, 1.524, 1.524, 1.524, 1.524, 1.525, 1.526, 1.527, 1.524, 1.521, 1.516, 1.507, 1.496, 1.487, 1.475, 1.462, 1.452, 1.444, 1.438, 1.432, 1.427, 1.425, 1.421, 1.421, 1.419, 1.419, 1.417, 1.415, 1.415, 1.413, 1.413, 1.412, 1.412, 1.412, 1.412, 1.412, 1.412, 1.412, 1.412, 1.413, 1.412, 1.412, 1.412, 1.412, 1.412, 1.41, 1.41, 1.41, 1.41, 1.41, 1.41, 1.41, 1.41, 1.41, 1.41, 1.41, 1.41, 1.41, 1.41, 1.41, 1.41, 1.41, 1.41, 1.41, 1.41, 1.41, 1.408, 1.408, 1.408, 1.408, 1.408, 1.408, 1.406, 1.406, 1.406, 1.406, 1.406, 1.406, 1.406, 1.406, 1.406, 1.406, 1.404, 1.404, 1.404, 1.404, 1.404, 1.404, 1.404, 1.404, 1.404, 1.404, 1.404, 1.404, 1.404, 1.404, 1.404, 1.404, 1.404, 1.402, 1.4, 1.4, 1.4, 1.397, 1.395, 1.393, 1.393, 1.393, 1.393, 1.393, 1.393, 1.393, 1.393, 1.397, 1.397, 1.397, 1.397, 1.397, 1.397, 1.397, 1.397, 1.397, 1.397, 1.397, 1.397, 1.397, 1.397, 1.397, 1.397, 1.397, 1.399, 1.399, 1.399, 1.399, 1.399, 1.399, 1.399, 1.399, 1.399, 1.399, 1.4, 1.4, 1.4, 1.402, 1.404, 1.404, 1.406, 1.408, 1.41, 1.412, 1.413, 1.413, 1.413, 1.413, 1.413, 1.41, 1.41, 1.408, 1.406, 1.406, 1.406, 1.408, 1.408, 1.41, 1.412, 1.415, 1.417, 1.419, 1.421, 1.423, 1.423, 1.425, 1.43, 1.432, 1.438, 1.444, 1.45, 1.458, 1.466, 1.472, 1.478, 1.485, 1.485, 1.491, 1.492, 1.493, 1.494, 1.494, 1.494, 1.493, 1.492, 1.492, 1.491, 1.49, 1.489, 1.488, 1.487, 1.487, 1.486, 1.486, 1.486, 1.486, 1.486, 1.486, 1.486, 1.486, 1.486, 1.487, 1.487, 1.487, 1.486, 1.486, 1.485, 1.485, 1.484, 1.484, 1.484, 1.483, 1.482, 1.482, 1.481, 1.48, 1.479, 1.478, 1.476, 1.474, 1.473, 1.472, 1.471, 1.47, 1.469, 1.468, 1.466, 1.466, 1.466, 1.466, 1.468, 1.468, 1.468, 1.471, 1.472, 1.473, 1.474, 1.475, 1.476, 1.476, 1.476, 1.475, 1.475, 1.474, 1.474, 1.474, 1.474, 1.474, 1.473, 1.473, 1.473, 1.472, 1.472, 1.472, 1.472, 1.473, 1.473, 1.473, 1.473, 1.473, 1.472, 1.472, 1.471, 1.471, 1.47, 1.47, 1.47, 1.469, 1.468, 1.468, 1.468, 1.468, 1.468, 1.466, 1.466, 1.466, 1.466, 1.466, 1.466, 1.466, 1.466
1.577, 1.577, 1.583, 1.584, 1.584, 1.584, 1.579, 1.579, 1.578, 1.577, 1.576, 1.572, 1.572, 1.572, 1.572, 1.573, 1.573, 1.573, 1.573, 1.576, 1.576, 1.577, 1.577, 1.577, 1.576, 1.572, 1.569, 1.568, 1.562, 1.556, 1.555, 1.553, 1.552, 1.548, 1.547, 1.547, 1.548, 1.548, 1.548, 1.548, 1.551, 1.551, 1.551, 1.551, 1.551, 1.551, 1.548, 1.548, 1.548, 1.548, 1.548, 1.548, 1.548, 1.548, 1.548, 1.548, 1.548, 1.547, 1.546, 1.545, 1.544, 1.543, 1.539, 1.539, 1.539, 1.539, 1.539, 1.539, 1.539, 1.539, 1.539, 1.539, 1.542, 1.542, 1.543, 1.544, 1.544, 1.544, 1.544, 1.544, 1.544, 1.543, 1.543, 1.542, 1.542, 1.539, 1.538, 1.538, 1.537, 1.536, 1.535, 1.534, 1.533, 1.533, 1.533, 1.533, 1.533, 1.533, 1.534, 1.535, 1.535, 1.536, 1.537, 1.537, 1.537, 1.537, 1.538, 1.538, 1.539, 1.539, 1.539, 1.539, 1.538, 1.537, 1.537, 1.536, 1.535, 1.535, 1.534, 1.533, 1.533, 1.533, 1.533, 1.533, 1.533, 1.533, 1.532, 1.528, 1.528, 1.524, 1.523, 1.522, 1.521, 1.521, 1.521, 1.521, 1.522, 1.523, 1.524, 1.528, 1.528, 1.532, 1.533, 1.533, 1.534, 1.535, 1.534, 1.533, 1.533, 1.533, 1.532, 1.528, 1.528, 1.527, 1.526, 1.525, 1.525, 1.524, 1.524, 1.525, 1.525, 1.526, 1.527, 1.527, 1.526, 1.522, 1.517, 1.509, 1.5, 1.488, 1.475, 1.466, 1.456, 1.446, 1.44, 1.432, 1.429, 1.425, 1.423, 1.421, 1.419, 1.419, 1.417, 1.415, 1.415, 1.413, 1.413, 1.413, 1.412, 1.412, 1.412, 1.412, 1.412, 1.412, 1.412, 1.412, 1.412, 1.412, 1.412, 1.412, 1.41, 1.41, 1.41, 1.41, 1.41, 1.41, 1.41, 1.41, 1.41, 1.41, 1.41, 1.41, 1.41, 1.41, 1.41, 1.41, 1.41, 1.41, 1.41, 1.41, 1.41, 1.41, 1.408, 1.408, 1.408, 1.408, 1.408, 1.408, 1.408, 1.408, 1.408, 1.406, 1.406, 1.406, 1.406, 1.406, 1.406, 1.406, 1.406, 1.406, 1.404, 1.404, 1.404, 1.404, 1.404, 1.404, 1.404, 1.404, 1.404, 1.404, 1.404, 1.404, 1.402, 1.402, 1.402, 1.4, 1.4, 1.399, 1.397, 1.397, 1.393, 1.393, 1.391, 1.391, 1.391, 1.391, 1.391, 1.393, 1.393, 1.395, 1.397, 1.397, 1.399, 1.397, 1.397, 1.397, 1.397, 1.397, 1.397, 1.397, 1.397, 1.397, 1.397, 1.397, 1.397, 1.399, 1.399, 1.399, 1.397, 1.397, 1.397, 1.397, 1.397, 1.397, 1.399, 1.399, 1.4, 1.4, 1.4, 1.4, 1.402, 1.404, 1.406, 1.408, 1.41, 1.412, 1.413, 1.415, 1.417, 1.417, 1.415, 1.415, 1.413, 1.412, 1.41, 1.41, 1.41, 1.412, 1.413, 1.417, 1.419, 1.421, 1.425, 1.427, 1.429, 1.43, 1.432, 1.434, 1.438, 1.442, 1.446, 1.452, 1.458, 1.466, 1.472, 1.479, 1.482, 1.486, 1.491, 1.492, 1.494, 1.495, 1.495, 1.495, 1.495, 1.494, 1.493, 1.493, 1.492, 1.491, 1.49, 1.489, 1.488, 1.487, 1.487, 1.486, 1.486, 1.486, 1.486, 1.486, 1.486, 1.487, 1.487, 1.488, 1.488, 1.488, 1.488, 1.487, 1.487, 1.486, 1.485, 1.485, 1.484, 1.484, 1.483, 1.482, 1.481, 1.48, 1.479, 1.478, 1.476, 1.475, 1.474, 1.472, 1.471, 1.47, 1.469, 1.468, 1.466, 1.466, 1.466, 1.466, 1.466, 1.468, 1.468, 1.471, 1.471, 1.472, 1.473, 1.474, 1.474, 1.474, 1.474, 1.474, 1.474, 1.474, 1.474, 1.474, 1.474, 1.474, 1.474, 1.474, 1.473, 1.473, 1.473, 1.473, 1.473, 1.474, 1.474, 1.474, 1.473, 1.472, 1.472, 1.471, 1.471, 1.47, 1.468, 1.468, 1.468, 1.468, 1.468, 1.468, 1.468, 1.468, 1.466, 1.466, 1.466, 1.466, 1.466, 1.464, 1.464, 1.464, 1.464
1.577, 1.577, 1.584, 1.584, 1.585, 1.584, 1.584, 1.579, 1.578, 1.577, 1.576, 1.576, 1.573, 1.573, 1.573, 1.573, 1.573, 1.576, 1.576, 1.577, 1.577, 1.578, 1.578, 1.578, 1.577, 1.572, 1.572, 1.569, 1.563, 1.56, 1.555, 1.553, 1.552, 1.548, 1.547, 1.547, 1.547, 1.547, 1.548, 1.548, 1.551, 1.551, 1.551, 1.551, 1.551, 1.551, 1.548, 1.548, 1.548, 1.548, 1.548, 1.548, 1.548, 1.548, 1.548, 1.548, 1.548, 1.547, 1.546, 1.545, 1.544, 1.543, 1.539, 1.539, 1.538, 1.538, 1.538, 1.538, 1.539, 1.539, 1.539, 1.539, 1.542, 1.542, 1.543, 1.543, 1.544, 1.544, 1.544, 1.543, 1.543, 1.542, 1.542, 1.542, 1.542, 1.539, 1.538, 1.537, 1.537, 1.536, 1.535, 1.534, 1.533, 1.533, 1.533, 1.533, 1.533, 1.534, 1.534, 1.535, 1.535, 1.536, 1.537, 1.537, 1.537, 1.537, 1.537, 1.538, 1.539, 1.539, 1.539, 1.539, 1.538, 1.537, 1.537, 1.536, 1.535, 1.535, 1.534, 1.533, 1.533, 1.533, 1.533, 1.533, 1.533, 1.533, 1.532, 1.528, 1.528, 1.524, 1.524, 1.523, 1.522, 1.522, 1.522, 1.522, 1.523, 1.524, 1.525, 1.528, 1.528, 1.532, 1.533, 1.533, 1.534, 1.534, 1.534, 1.533, 1.533, 1.533, 1.532, 1.528, 1.528, 1.527, 1.526, 1.526, 1.525, 1.525, 1.525, 1.526, 1.526, 1.527, 1.527, 1.527, 1.527, 1.523, 1.518, 1.511, 1.501, 1.489, 1.48, 1.468, 1.46, 1.45, 1.442, 1.436, 1.43, 1.427, 1.423, 1.421, 1.421, 1.419, 1.417, 1.415, 1.415, 1.413, 1.413, 1.413, 1.412, 1.412, 1.412, 1.412, 1.412, 1.412, 1.412, 1.412, 1.412, 1.412, 1.412, 1.412, 1.41, 1.41, 1.41, 1.41, 1.41, 1.41, 1.41, 1.41, 1.41, 1.41, 1.41, 1.41, 1.41, 1.41, 1.41, 1.41, 1.41, 1.41, 1.41, 1.41, 1.41, 1.41, 1.41, 1.41, 1.408, 1.408, 1.408, 1.408, 1.408, 1.408, 1.408, 1.408, 1.406, 1.406, 1.406, 1.406, 1.406, 1.406, 1.406, 1.406, 1.404, 1.404, 1.404, 1.404, 1.404, 1.404, 1.404, 1.404, 1.404, 1.404, 1.402, 1.402, 1.4, 1.4, 1.4, 1.4, 1.399, 1.397, 1.397, 1.395, 1.393, 1.393, 1.391, 1.391, 1.391, 1.391, 1.391, 1.393, 1.393, 1.395, 1.397, 1.397, 1.399, 1.399, 1.399, 1.397, 1.397, 1.397, 1.397, 1.397, 1.397, 1.397, 1.397, 1.397, 1.399, 1.399, 1.397, 1.397, 1.397, 1.397, 1.397, 1.397, 1.397, 1.397, 1.399, 1.399, 1.399, 1.4, 1.4, 1.4, 1.402, 1.404, 1.404, 1.406, 1.408, 1.412, 1.413, 1.417, 1.417, 1.419, 1.419, 1.417, 1.417, 1.415, 1.415, 1.415, 1.415, 1.417, 1.421, 1.423, 1.427, 1.43, 1.434, 1.436, 1.438, 1.44, 1.44, 1.442, 1.446, 1.45, 1.454, 1.46, 1.464, 1.47, 1.476, 1.479, 1.487, 1.488, 1.492, 1.493, 1.495, 1.495, 1.496, 1.496, 1.495, 1.495, 1.494, 1.493, 1.492, 1.492, 1.491, 1.49, 1.488, 1.488, 1.487, 1.487, 1.486, 1.486, 1.486, 1.486, 1.487, 1.488, 1.488, 1.488, 1.489, 1.489, 1.489, 1.488, 1.488, 1.487, 1.486, 1.485, 1.485, 1.484, 1.483, 1.482, 1.481, 1.48, 1.479, 1.478, 1.476, 1.475, 1.474, 1.472, 1.471, 1.47, 1.469, 1.468, 1.466, 1.466, 1.466, 1.466, 1.466, 1.466, 1.468, 1.468, 1.471, 1.472, 1.473, 1.473, 1.474, 1.474, 1.474, 1.474, 1.474, 1.474, 1.474, 1.474, 1.474, 1.474, 1.474, 1.474, 1.474, 1.474, 1.474, 1.474, 1.474, 1.474, 1.474, 1.474, 1.473, 1.472, 1.471, 1.47, 1.47, 1.468, 1.468, 1.466, 1.466, 1.466, 1.466, 1.466, 1.466, 1.466, 1.466, 1.466, 1.466, 1.466, 1.464, 1.464, 1.464, 1.464, 1.464
1.577, 1.578, 1.579, 1.585, 1.585, 1.585, 1.584, 1.584, 1.579, 1.578, 1.577, 1.576, 1.576, 1.573, 1.573, 1.576, 1.576, 1.576, 1.577, 1.577, 1.578, 1.579, 1.579, 1.579, 1.578, 1.577, 1.572, 1.569, 1.564, 1.56, 1.555, 1.553, 1.552, 1.548, 1.547, 1.546, 1.546, 1.547, 1.547, 1.548, 1.551, 1.551, 1.551, 1.551, 1.551, 1.551, 1.548, 1.548, 1.548, 1.548, 1.548, 1.548, 1.548, 1.548, 1.548, 1.548, 1.548, 1.547, 1.546, 1.545, 1.544, 1.543, 1.539, 1.538, 1.538, 1.537, 1.537, 1.538, 1.539, 1.539, 1.539, 1.539, 1.542, 1.542, 1.542, 1.542, 1.543, 1.543, 1.543, 1.543, 1.542, 1.542, 1.542, 1.542, 1.539, 1.538, 1.538, 1.537, 1.537, 1.536, 1.535, 1.534, 1.534, 1.533, 1.533, 1.534, 1.534, 1.534, 1.535, 1.535, 1.535, 1.536, 1.537, 1.537, 1.537, 1.537, 1.537, 1.538, 1.539, 1.539, 1.539, 1.539, 1.538, 1.537, 1.537, 1.536, 1.535, 1.535, 1.534, 1.533, 1.533, 1.533, 1.533, 1.533, 1.533, 1.533, 1.532, 1.528, 1.527, 1.526, 1.525, 1.524, 1.523, 1.523, 1.523, 1.523, 1.524, 1.525, 1.526, 1.527, 1.528, 1.532, 1.532, 1.533, 1.533, 1.534, 1.533, 1.533, 1.533, 1.533, 1.532, 1.528, 1.528, 1.528, 1.527, 1.527, 1.526, 1.526, 1.526, 1.526, 1.527, 1.527, 1.528, 1.528, 1.527, 1.524, 1.52, 1.512, 1.502, 1.495, 1.484, 1.474, 1.464, 1.456, 1.446, 1.44, 1.434, 1.429, 1.425, 1.423, 1.421, 1.419, 1.417, 1.415, 1.415, 1.415, 1.413, 1.413, 1.413, 1.412, 1.412, 1.412, 1.412, 1.412, 1.412, 1.412, 1.412, 1.412, 1.412, 1.412, 1.412, 1.41, 1.41, 1.41, 1.41, 1.41, 1.41, 1.41, 1.41, 1.41, 1.41, 1.41, 1.408, 1.408, 1.41, 1.41, 1.41, 1.41, 1.41, 1.41, 1.41, 1.41, 1.41, 1.41, 1.41, 1.41, 1.408, 1.408, 1.408, 1.408, 1.408, 1.408, 1.408, 1.408, 1.406, 1.406, 1.406, 1.406, 1.406, 1.406, 1.406, 1.406, 1.406, 1.404, 1.404, 1.404, 1.404, 1.404, 1.404, 1.402, 1.402, 1.4, 1.4, 1.4, 1.4, 1.4, 1.399, 1.397, 1.397, 1.395, 1.393, 1.393, 1.391, 1.391, 1.391, 1.391, 1.391, 1.393, 1.393, 1.395, 1.397, 1.397, 1.399, 1.399, 1.399, 1.399, 1.399, 1.399, 1.399, 1.399, 1.399, 1.399, 1.399, 1.399, 1.399, 1.397, 1.397, 1.397, 1.397, 1.397, 1.397, 1.397, 1.397, 1.397, 1.397, 1.399, 1.399, 1.399, 1.399, 1.4, 1.4, 1.402, 1.404, 1.406, 1.408, 1.41, 1.413, 1.417, 1.421, 1.421, 1.421, 1.423, 1.423, 1.423, 1.421, 1.421, 1.423, 1.425, 1.429, 1.432, 1.436, 1.438, 1.442, 1.446, 1.448, 1.448, 1.45, 1.452, 1.454, 1.458, 1.462, 1.466, 1.47, 1.476, 1.48, 1.485, 1.488, 1.489, 1.493, 1.494, 1.495, 1.496, 1.499, 1.499, 1.496, 1.495, 1.495, 1.494, 1.493, 1.492, 1.491, 1.49, 1.489, 1.488, 1.488, 1.488, 1.487, 1.487, 1.487, 1.487, 1.487, 1.488, 1.488, 1.489, 1.489, 1.49, 1.49, 1.489, 1.489, 1.488, 1.487, 1.486, 1.485, 1.484, 1.483, 1.482, 1.481, 1.48, 1.479, 1.478, 1.476, 1.475, 1.474, 1.473, 1.472, 1.47, 1.469, 1.468, 1.466, 1.466, 1.466, 1.466, 1.466, 1.466, 1.466, 1.468, 1.47, 1.471, 1.472, 1.473, 1.473, 1.473, 1.474, 1.474, 1.474, 1.474, 1.474, 1.474, 1.474, 1.474, 1.474, 1.474, 1.474, 1.474, 1.474, 1.474, 1.474, 1.474, 1.474, 1.474, 1.473, 1.472, 1.471, 1.47, 1.468, 1.468, 1.466, 1.466, 1.466, 1.466, 1.466, 1.466, 1.466, 1.466, 1.466, 1.466, 1.466, 1.464, 1.464, 1.464, 1.464, 1.464, 1.464
1.573, 1.578, 1.579, 1.584, 1.585, 1.585, 1.585, 1.584, 1.583, 1.579, 1.578, 1.577, 1.576, 1.576, 1.576, 1.576, 1.576, 1.576, 1.577, 1.578, 1.579, 1.58, 1.58, 1.579, 1.578, 1.577, 1.573, 1.569, 1.564, 1.56, 1.556, 1.553, 1.552, 1.548, 1.547, 1.546, 1.546, 1.546, 1.547, 1.547, 1.551, 1.551, 1.551, 1.551, 1.551, 1.551, 1.548, 1.548, 1.548, 1.548, 1.548, 1.548, 1.548, 1.548, 1.548, 1.548, 1.548, 1.547, 1.546, 1.544, 1.544, 1.543, 1.539, 1.538, 1.537, 1.537, 1.537, 1.538, 1.539, 1.539, 1.539, 1.539, 1.542, 1.542, 1.542, 1.542, 1.542, 1.543, 1.543, 1.542, 1.542, 1.542, 1.539, 1.539, 1.538, 1.538, 1.537, 1.537, 1.537, 1.536, 1.535, 1.535, 1.534, 1.534, 1.534, 1.534, 1.535, 1.535, 1.535, 1.535, 1.536, 1.536, 1.537, 1.537, 1.537, 1.537, 1.537, 1.538, 1.538, 1.539, 1.539, 1.539, 1.538, 1.537, 1.537, 1.536, 1.535, 1.535, 1.534, 1.533, 1.533, 1.533, 1.533, 1.533, 1.533, 1.533, 1.532, 1.532, 1.528, 1.527, 1.526, 1.525, 1.524, 1.524, 1.524, 1.524, 1.524, 1.525, 1.526, 1.527, 1.528, 1.531, 1.532, 1.533, 1.533, 1.533, 1.533, 1.533, 1.533, 1.533, 1.532, 1.531, 1.528, 1.528, 1.528, 1.527, 1.527, 1.527, 1.527, 1.527, 1.527, 1.528, 1.528, 1.528, 1.527, 1.526, 1.522, 1.517, 1.509, 1.495, 1.488, 1.478, 1.468, 1.46, 1.452, 1.444, 1.438, 1.432, 1.429, 1.425, 1.421, 1.419, 1.417, 1.417, 1.415, 1.415, 1.413, 1.413, 1.413, 1.413, 1.412, 1.412, 1.412, 1.412, 1.412, 1.412, 1.412, 1.412, 1.412, 1.412, 1.412, 1.412, 1.412, 1.412, 1.412, 1.412, 1.41, 1.41, 1.41, 1.41, 1.41, 1.41, 1.408, 1.408, 1.408, 1.408, 1.408, 1.408, 1.41, 1.41, 1.41, 1.41, 1.41, 1.41, 1.41, 1.41, 1.41, 1.41, 1.41, 1.41, 1.408, 1.408, 1.408, 1.408, 1.408, 1.406, 1.406, 1.406, 1.406, 1.406, 1.406, 1.406, 1.406, 1.406, 1.406, 1.404, 1.404, 1.404, 1.404, 1.402, 1.4, 1.4, 1.4, 1.4, 1.4, 1.4, 1.399, 1.397, 1.397, 1.395, 1.393, 1.393, 1.391, 1.391, 1.391, 1.391, 1.391, 1.393, 1.393, 1.395, 1.397, 1.399, 1.399, 1.399, 1.399, 1.399, 1.399, 1.399, 1.399, 1.399, 1.399, 1.399, 1.399, 1.397, 1.397, 1.397, 1.397, 1.397, 1.395, 1.395, 1.395, 1.395, 1.397, 1.397, 1.397, 1.399, 1.399, 1.399, 1.399, 1.4, 1.4, 1.4, 1.402, 1.404, 1.406, 1.41, 1.413, 1.417, 1.421, 1.423, 1.425, 1.427, 1.427, 1.429, 1.429, 1.429, 1.432, 1.434, 1.438, 1.44, 1.444, 1.448, 1.45, 1.454, 1.456, 1.458, 1.458, 1.46, 1.462, 1.466, 1.468, 1.472, 1.476, 1.481, 1.481, 1.485, 1.49, 1.493, 1.494, 1.495, 1.496, 1.499, 1.499, 1.499, 1.499, 1.499, 1.496, 1.495, 1.494, 1.493, 1.492, 1.491, 1.49, 1.489, 1.488, 1.488, 1.488, 1.488, 1.488, 1.488, 1.488, 1.488, 1.489, 1.489, 1.49, 1.49, 1.491, 1.49, 1.49, 1.489, 1.488, 1.487, 1.486, 1.485, 1.484, 1.482, 1.481, 1.48, 1.479, 1.478, 1.476, 1.476, 1.474, 1.473, 1.472, 1.47, 1.47, 1.468, 1.468, 1.466, 1.466, 1.466, 1.466, 1.466, 1.466, 1.468, 1.468, 1.471, 1.471, 1.472, 1.472, 1.473, 1.473, 1.473, 1.473, 1.474, 1.474, 1.474, 1.474, 1.474, 1.474, 1.474, 1.474, 1.474, 1.474, 1.474, 1.474, 1.474, 1.474, 1.473, 1.472, 1.471, 1.47, 1.468, 1.466, 1.466, 1.466, 1.466, 1.464, 1.464, 1.466, 1.466, 1.466, 1.466, 1.466, 1.466, 1.464, 1.464, 1.462, 1.462, 1.462, 1.462, 1.462
1.573, 1.578, 1.579, 1.584, 1.585, 1.585, 1.585, 1.584, 1.584, 1.579, 1.578, 1.578, 1.577, 1.576, 1.576, 1.576, 1.576, 1.577, 1.577, 1.578, 1.579, 1.58, 1.58, 1.58, 1.579, 1.578, 1.573, 1.569, 1.564, 1.561, 1.557, 1.553, 1.551, 1.548, 1.547, 1.547, 1.546, 1.546, 1.547, 1.548, 1.548, 1.551, 1.551, 1.551, 1.551, 1.548, 1.548, 1.548, 1.548, 1.548, 1.548, 1.548, 1.548, 1.548, 1.548, 1.548, 1.547, 1.546, 1.546, 1.544, 1.544, 1.543, 1.539, 1.538, 1.537, 1.537, 1.537, 1.538, 1.539, 1.539, 1.539, 1.539, 1.539, 1.542, 1.542, 1.542, 1.542, 1.542, 1.542, 1.542, 1.542, 1.539, 1.539, 1.539, 1.538, 1.537, 1.537, 1.537, 1.537, 1.536, 1.535, 1.535, 1.535, 1.535, 1.535, 1.535, 1.535, 1.535, 1.535, 1.535, 1.536, 1.536, 1.537, 1.537, 1.537, 1.537, 1.537, 1.538, 1.538, 1.539, 1.539, 1.539, 1.539, 1.538, 1.537, 1.536, 1.536, 1.535, 1.535, 1.534, 1.534, 1.534, 1.534, 1.534, 1.533, 1.533, 1.533, 1.532, 1.532, 1.528, 1.527, 1.526, 1.525, 1.524, 1.524, 1.524, 1.525, 1.526, 1.527, 1.528, 1.528, 1.531, 1.532, 1.533, 1.533, 1.533, 1.533, 1.533, 1.533, 1.533, 1.532, 1.531, 1.531, 1.528, 1.528, 1.528, 1.528, 1.528, 1.528, 1.528, 1.528, 1.528, 1.528, 1.531, 1.527, 1.527, 1.523, 1.517, 1.513, 1.501, 1.492, 1.482, 1.474, 1.466, 1.456, 1.448, 1.44, 1.434, 1.429, 1.425, 1.423, 1.419, 1.417, 1.415, 1.415, 1.413, 1.413, 1.413, 1.413, 1.413, 1.412, 1.412, 1.412, 1.412, 1.412, 1.412, 1.412, 1.412, 1.412, 1.412, 1.412, 1.412, 1.412, 1.412, 1.412, 1.412, 1.412, 1.412, 1.41, 1.41, 1.41, 1.41, 1.408, 1.408, 1.408, 1.408, 1.408, 1.408, 1.408, 1.408, 1.408, 1.408, 1.41, 1.41, 1.41, 1.41, 1.41, 1.41, 1.41, 1.41, 1.41, 1.408, 1.408, 1.408, 1.408, 1.408, 1.408, 1.406, 1.406, 1.406, 1.406, 1.406, 1.406, 1.406, 1.406, 1.404, 1.404, 1.404, 1.404, 1.402, 1.4, 1.4, 1.4, 1.4, 1.4, 1.399, 1.399, 1.397, 1.397, 1.397, 1.393, 1.393, 1.391, 1.391, 1.391, 1.391, 1.391, 1.393, 1.393, 1.397, 1.397, 1.399, 1.399, 1.4, 1.4, 1.399, 1.399, 1.399, 1.399, 1.399, 1.399, 1.399, 1.397, 1.397, 1.397, 1.397, 1.397, 1.395, 1.395, 1.395, 1.395, 1.395, 1.395, 1.397, 1.397, 1.397, 1.399, 1.399, 1.399, 1.399, 1.399, 1.4, 1.4, 1.402, 1.404, 1.408, 1.412, 1.415, 1.421, 1.425, 1.427, 1.43, 1.432, 1.434, 1.436, 1.438, 1.44, 1.442, 1.446, 1.45, 1.454, 1.456, 1.46, 1.462, 1.464, 1.464, 1.466, 1.468, 1.471, 1.472, 1.474, 1.475, 1.48, 1.481, 1.487, 1.49, 1.49, 1.494, 1.494, 1.495, 1.499, 1.499, 1.499, 1.499, 1.499, 1.499, 1.496, 1.495, 1.495, 1.494, 1.493, 1.492, 1.491, 1.49, 1.489, 1.488, 1.488, 1.488, 1.488, 1.488, 1.488, 1.489, 1.489, 1.49, 1.49, 1.49, 1.491, 1.491, 1.49, 1.489, 1.488, 1.487, 1.486, 1.485, 1.484, 1.482, 1.481, 1.48, 1.479, 1.478, 1.476, 1.476, 1.474, 1.473, 1.472, 1.471, 1.47, 1.468, 1.468, 1.466, 1.466, 1.466, 1.466, 1.466, 1.466, 1.468, 1.468, 1.47, 1.471, 1.472, 1.472, 1.472, 1.472, 1.472, 1.473, 1.473, 1.474, 1.474, 1.474, 1.474, 1.474, 1.474, 1.474, 1.474, 1.474, 1.474, 1.474, 1.474, 1.474, 1.473, 1.472, 1.471, 1.468, 1.466, 1.466, 1.466, 1.464, 1.464, 1.464, 1.464, 1.464, 1.464, 1.466, 1.466, 1.464, 1.464, 1.464, 1.462, 1.462, 1.462, 1.462, 1.462, 1.462
1.572, 1.578, 1.579, 1.584, 1.585, 1.586, 1.585, 1.585, 1.584, 1.583, 1.579, 1.578, 1.577, 1.576, 1.576, 1.576, 1.576, 1.577, 1.578, 1.578, 1.579, 1.583, 1.583, 1.583, 1.579, 1.578, 1.573, 1.57, 1.564, 1.562, 1.557, 1.555, 1.552, 1.548, 1.548, 1.547, 1.546, 1.546, 1.547, 1.548, 1.548, 1.548, 1.551, 1.551, 1.551, 1.548, 1.548, 1.548, 1.548, 1.548, 1.548, 1.548, 1.548, 1.548, 1.548, 1.548, 1.547, 1.546, 1.546, 1.544, 1.544, 1.543, 1.539, 1.538, 1.538, 1.538, 1.538, 1.538, 1.539, 1.539, 1.539, 1.539, 1.539, 1.542, 1.542, 1.542, 1.542, 1.542, 1.542, 1.542, 1.542, 1.539, 1.539, 1.539, 1.538, 1.537, 1.537, 1.537, 1.537, 1.536, 1.535, 1.535, 1.535, 1.535, 1.535, 1.535, 1.535, 1.535, 1.535, 1.535, 1.536, 1.537, 1.537, 1.537, 1.537, 1.538, 1.538, 1.538, 1.539, 1.539, 1.539, 1.539, 1.539, 1.538, 1.537, 1.537, 1.536, 1.536, 1.535, 1.535, 1.535, 1.535, 1.535, 1.534, 1.534, 1.534, 1.533, 1.533, 1.532, 1.528, 1.527, 1.527, 1.526, 1.525, 1.525, 1.525, 1.525, 1.526, 1.527, 1.528, 1.528, 1.528, 1.532, 1.532, 1.533, 1.533, 1.533, 1.533, 1.533, 1.533, 1.532, 1.532, 1.531, 1.531, 1.528, 1.528, 1.528, 1.528, 1.528, 1.528, 1.528, 1.528, 1.531, 1.531, 1.531, 1.527, 1.527, 1.523, 1.519, 1.505, 1.496, 1.488, 1.48, 1.47, 1.462, 1.452, 1.444, 1.436, 1.432, 1.427, 1.423, 1.421, 1.419, 1.415, 1.415, 1.413, 1.413, 1.413, 1.413, 1.413, 1.413, 1.412, 1.412, 1.412, 1.412, 1.412, 1.412, 1.412, 1.412, 1.412, 1.412, 1.412, 1.412, 1.412, 1.412, 1.412, 1.412, 1.412, 1.41, 1.41, 1.41, 1.41, 1.408, 1.408, 1.408, 1.408, 1.408, 1.408, 1.408, 1.408, 1.408, 1.408, 1.41, 1.41, 1.41, 1.41, 1.41, 1.41, 1.41, 1.41, 1.41, 1.41, 1.408, 1.408, 1.408, 1.408, 1.408, 1.408, 1.406, 1.406, 1.406, 1.406, 1.406, 1.406, 1.406, 1.406, 1.404, 1.404, 1.402, 1.4, 1.4, 1.4, 1.4, 1.399, 1.399, 1.399, 1.399, 1.397, 1.397, 1.397, 1.393, 1.393, 1.391, 1.391, 1.391, 1.391, 1.391, 1.393, 1.395, 1.397, 1.397, 1.399, 1.4, 1.4, 1.4, 1.399, 1.399, 1.399, 1.399, 1.399, 1.399, 1.399, 1.397, 1.397, 1.397, 1.397, 1.395, 1.395, 1.395, 1.393, 1.393, 1.395, 1.395, 1.395, 1.397, 1.397, 1.397, 1.397, 1.397, 1.399, 1.399, 1.399, 1.4, 1.4, 1.402, 1.406, 1.41, 1.415, 1.421, 1.425, 1.429, 1.432, 1.436, 1.44, 1.442, 1.446, 1.448, 1.452, 1.456, 1.458, 1.462, 1.464, 1.468, 1.471, 1.472, 1.472, 1.474, 1.474, 1.476, 1.477, 1.481, 1.482, 1.485, 1.487, 1.487, 1.491, 1.491, 1.494, 1.495, 1.495, 1.499, 1.499, 1.499, 1.499, 1.499, 1.499, 1.496, 1.496, 1.495, 1.494, 1.493, 1.492, 1.491, 1.49, 1.489, 1.488, 1.488, 1.488, 1.488, 1.488, 1.488, 1.489, 1.49, 1.49, 1.49, 1.49, 1.49, 1.49, 1.49, 1.489, 1.488, 1.487, 1.486, 1.484, 1.483, 1.482, 1.481, 1.48, 1.479, 1.478, 1.476, 1.476, 1.474, 1.473, 1.472, 1.471, 1.47, 1.468, 1.468, 1.466, 1.466, 1.466, 1.466, 1.466, 1.466, 1.468, 1.468, 1.47, 1.471, 1.472, 1.472, 1.472, 1.472, 1.472, 1.472, 1.473, 1.474, 1.474, 1.474, 1.474, 1.474, 1.474, 1.474, 1.474, 1.474, 1.474, 1.474, 1.474, 1.473, 1.472, 1.471, 1.47, 1.468, 1.466, 1.466, 1.464, 1.464, 1.464, 1.464, 1.464, 1.464, 1.464, 1.466, 1.466, 1.464, 1.464, 1.464, 1.462, 1.462, 1.462, 1.462, 1.462, 1.462
1.571, 1.577, 1.579, 1.584, 1.585, 1.585, 1.585, 1.585, 1.584, 1.583, 1.579, 1.578, 1.577, 1.576, 1.576, 1.576, 1.576, 1.577, 1.578, 1.578, 1.579, 1.58, 1.583, 1.583, 1.579, 1.578, 1.573, 1.571, 1.567, 1.562, 1.556, 1.555, 1.552, 1.552, 1.548, 1.547, 1.547, 1.547, 1.547, 1.548, 1.548, 1.548, 1.551, 1.551, 1.551, 1.548, 1.548, 1.548, 1.548, 1.548, 1.548, 1.548, 1.548, 1.548, 1.548, 1.548, 1.547, 1.546, 1.546, 1.544, 1.544, 1.543, 1.539, 1.539, 1.539, 1.539, 1.539, 1.539, 1.539, 1.539, 1.539, 1.539, 1.539, 1.542, 1.542, 1.543, 1.543, 1.543, 1.542, 1.542, 1.542, 1.539, 1.539, 1.538, 1.538, 1.537, 1.537, 1.537, 1.537, 1.536, 1.536, 1.535, 1.535, 1.535, 1.535, 1.535, 1.535, 1.535, 1.535, 1.536, 1.536, 1.537, 1.537, 1.537, 1.538, 1.538, 1.539, 1.539, 1.539, 1.539, 1.539, 1.539, 1.539, 1.538, 1.538, 1.537, 1.537, 1.537, 1.536, 1.536, 1.535, 1.535, 1.535, 1.535, 1.535, 1.534, 1.533, 1.533, 1.532, 1.532, 1.528, 1.527, 1.526, 1.526, 1.525, 1.525, 1.526, 1.526, 1.527, 1.527, 1.528, 1.528, 1.531, 1.532, 1.532, 1.533, 1.533, 1.533, 1.533, 1.533, 1.533, 1.532, 1.531, 1.531, 1.531, 1.531, 1.528, 1.528, 1.528, 1.528, 1.528, 1.531, 1.532, 1.532, 1.532, 1.532, 1.527, 1.524, 1.52, 1.509, 1.501, 1.494, 1.486, 1.476, 1.468, 1.458, 1.448, 1.442, 1.434, 1.429, 1.425, 1.421, 1.419, 1.417, 1.415, 1.415, 1.413, 1.413, 1.413, 1.413, 1.413, 1.412, 1.412, 1.412, 1.412, 1.412, 1.412, 1.412, 1.412, 1.412, 1.412, 1.412, 1.412, 1.412, 1.412, 1.412, 1.412, 1.412, 1.412, 1.41, 1.41, 1.41, 1.408, 1.408, 1.408, 1.408, 1.408, 1.408, 1.408, 1.408, 1.408, 1.408, 1.41, 1.41, 1.41, 1.41, 1.41, 1.41, 1.41, 1.41, 1.41, 1.41, 1.408, 1.408, 1.408, 1.408, 1.408, 1.408, 1.406, 1.406, 1.406, 1.406, 1.406, 1.406, 1.406, 1.404, 1.404, 1.404, 1.402, 1.4, 1.4, 1.4, 1.399, 1.399, 1.399, 1.399, 1.399, 1.397, 1.397, 1.397, 1.395, 1.393, 1.393, 1.391, 1.391, 1.391, 1.393, 1.393, 1.395, 1.397, 1.399, 1.4, 1.4, 1.4, 1.4, 1.399, 1.399, 1.399, 1.399, 1.399, 1.399, 1.397, 1.397, 1.397, 1.397, 1.395, 1.395, 1.395, 1.393, 1.393, 1.393, 1.393, 1.393, 1.395, 1.395, 1.397, 1.397, 1.397, 1.397, 1.397, 1.397, 1.399, 1.399, 1.4, 1.402, 1.406, 1.41, 1.415, 1.421, 1.425, 1.43, 1.436, 1.442, 1.446, 1.45, 1.454, 1.456, 1.46, 1.464, 1.468, 1.47, 1.475, 1.476, 1.477, 1.478, 1.478, 1.479, 1.48, 1.48, 1.481, 1.482, 1.483, 1.487, 1.488, 1.49, 1.491, 1.492, 1.494, 1.495, 1.496, 1.499, 1.499, 1.499, 1.499, 1.499, 1.499, 1.499, 1.496, 1.495, 1.495, 1.494, 1.493, 1.492, 1.491, 1.49, 1.489, 1.488, 1.488, 1.488, 1.488, 1.488, 1.489, 1.49, 1.49, 1.49, 1.49, 1.49, 1.49, 1.489, 1.489, 1.488, 1.487, 1.486, 1.484, 1.483, 1.482, 1.481, 1.48, 1.478, 1.478, 1.476, 1.476, 1.474, 1.473, 1.472, 1.471, 1.47, 1.468, 1.468, 1.466, 1.466, 1.466, 1.466, 1.466, 1.466, 1.468, 1.469, 1.47, 1.47, 1.471, 1.472, 1.472, 1.472, 1.472, 1.472, 1.473, 1.473, 1.474, 1.474, 1.474, 1.474, 1.474, 1.474, 1.474, 1.474, 1.474, 1.474, 1.474, 1.473, 1.472, 1.471, 1.47, 1.466, 1.466, 1.466, 1.464, 1.462, 1.462, 1.462, 1.462, 1.464, 1.464, 1.464, 1.466, 1.464, 1.464, 1.462, 1.462, 1.462, 1.462, 1.462, 1.462, 1.462
1.57, 1.577, 1.577, 1.584, 1.584, 1.585, 1.585, 1.584, 1.584, 1.583, 1.579, 1.578, 1.577, 1.576, 1.576, 1.576, 1.576, 1.576, 1.577, 1.578, 1.579, 1.579, 1.58, 1.579, 1.578, 1.577, 1.572, 1.571, 1.567, 1.562, 1.56, 1.554, 1.553, 1.552, 1.548, 1.548, 1.547, 1.547, 1.547, 1.548, 1.548, 1.548, 1.548, 1.551, 1.551, 1.548, 1.548, 1.548, 1.548, 1.548, 1.548, 1.548, 1.548, 1.548, 1.548, 1.548, 1.547, 1.546, 1.546, 1.544, 1.544, 1.543, 1.539, 1.539, 1.539, 1.539, 1.539, 1.539, 1.539, 1.539, 1.539, 1.539, 1.542, 1.542, 1.543, 1.543, 1.543, 1.543, 1.542, 1.542, 1.542, 1.539, 1.539, 1.539, 1.538, 1.537, 1.537, 1.537, 1.537, 1.537, 1.536, 1.536, 1.535, 1.535, 1.535, 1.535, 1.535, 1.535, 1.535, 1.536, 1.537, 1.537, 1.537, 1.538, 1.538, 1.539, 1.539, 1.539, 1.539, 1.539, 1.539, 1.539, 1.539, 1.539, 1.538, 1.537, 1.537, 1.537, 1.537, 1.537, 1.536, 1.536, 1.536, 1.536, 1.535, 1.535, 1.534, 1.533, 1.533, 1.532, 1.528, 1.528, 1.527, 1.526, 1.526, 1.526, 1.526, 1.526, 1.526, 1.527, 1.527, 1.528, 1.528, 1.531, 1.532, 1.532, 1.533, 1.533, 1.533, 1.533, 1.533, 1.532, 1.532, 1.531, 1.531, 1.531, 1.531, 1.531, 1.531, 1.531, 1.531, 1.532, 1.532, 1.533, 1.533, 1.532, 1.532, 1.526, 1.521, 1.513, 1.507, 1.501, 1.492, 1.484, 1.474, 1.464, 1.454, 1.446, 1.438, 1.432, 1.427, 1.423, 1.421, 1.417, 1.417, 1.415, 1.415, 1.413, 1.413, 1.413, 1.413, 1.412, 1.412, 1.412, 1.412, 1.412, 1.412, 1.412, 1.412, 1.412, 1.412, 1.412, 1.412, 1.412, 1.413, 1.413, 1.412, 1.412, 1.412, 1.41, 1.41, 1.41, 1.408, 1.408, 1.408, 1.408, 1.408, 1.408, 1.408, 1.408, 1.408, 1.41, 1.41, 1.41, 1.41, 1.41, 1.41, 1.41, 1.41, 1.41, 1.41, 1.41, 1.408, 1.408, 1.408, 1.408, 1.408, 1.408, 1.406, 1.406, 1.406, 1.406, 1.406, 1.406, 1.406, 1.404, 1.404, 1.404, 1.402, 1.4, 1.4, 1.4, 1.399, 1.399, 1.399, 1.399, 1.399, 1.397, 1.397, 1.397, 1.395, 1.393, 1.393, 1.393, 1.393, 1.393, 1.393, 1.395, 1.397, 1.399, 1.399, 1.4, 1.4, 1.4, 1.4, 1.399, 1.399, 1.399, 1.399, 1.399, 1.397, 1.397, 1.397, 1.397, 1.395, 1.395, 1.395, 1.393, 1.393, 1.393, 1.393, 1.393, 1.393, 1.393, 1.395, 1.395, 1.397, 1.397, 1.397, 1.397, 1.397, 1.397, 1.399, 1.399, 1.4, 1.404, 1.408, 1.413, 1.421, 1.427, 1.432, 1.44, 1.446, 1.452, 1.458, 1.462, 1.466, 1.468, 1.473, 1.474, 1.475, 1.481, 1.481, 1.482, 1.482, 1.482, 1.485, 1.485, 1.485, 1.486, 1.487, 1.488, 1.488, 1.489, 1.491, 1.492, 1.493, 1.494, 1.495, 1.496, 1.499, 1.499, 1.499, 1.499, 1.499, 1.499, 1.499, 1.496, 1.496, 1.495, 1.494, 1.494, 1.492, 1.492, 1.49, 1.49, 1.489, 1.488, 1.488, 1.488, 1.488, 1.489, 1.49, 1.49, 1.49, 1.49, 1.49, 1.489, 1.489, 1.488, 1.487, 1.486, 1.485, 1.484, 1.483, 1.482, 1.481, 1.48, 1.478, 1.478, 1.476, 1.476, 1.474, 1.474, 1.472, 1.471, 1.47, 1.468, 1.468, 1.466, 1.466, 1.466, 1.466, 1.466, 1.466, 1.468, 1.469, 1.47, 1.47, 1.471, 1.472, 1.472, 1.472, 1.472, 1.472, 1.472, 1.473, 1.474, 1.474, 1.474, 1.474, 1.474, 1.474, 1.474, 1.474, 1.474, 1.473, 1.473, 1.472, 1.471, 1.471, 1.468, 1.466, 1.466, 1.464, 1.464, 1.462, 1.462, 1.462, 1.462, 1.464, 1.464, 1.464, 1.466, 1.464, 1.464, 1.462, 1.462, 1.462, 1.462, 1.462, 1.462, 1.462
1.571, 1.572, 1.577, 1.579, 1.584, 1.584, 1.585, 1.584, 1.583, 1.583, 1.579, 1.578, 1.577, 1.576, 1.573, 1.573, 1.576, 1.576, 1.577, 1.577, 1.578, 1.579, 1.579, 1.579, 1.578, 1.577, 1.572, 1.571, 1.567, 1.563, 1.56, 1.555, 1.553, 1.552, 1.551, 1.548, 1.548, 1.548, 1.548, 1.548, 1.548, 1.548, 1.548, 1.551, 1.551, 1.551, 1.548, 1.548, 1.548, 1.548, 1.548, 1.548, 1.548, 1.548, 1.548, 1.548, 1.547, 1.546, 1.545, 1.544, 1.543, 1.543, 1.539, 1.539, 1.539, 1.539, 1.539, 1.539, 1.539, 1.539, 1.539, 1.539, 1.542, 1.542, 1.543, 1.544, 1.544, 1.543, 1.543, 1.542, 1.542, 1.539, 1.539, 1.539, 1.538, 1.537, 1.537, 1.537, 1.537, 1.537, 1.537, 1.536, 1.536, 1.536, 1.536, 1.536, 1.536, 1.536, 1.536, 1.536, 1.537, 1.537, 1.538, 1.538, 1.539, 1.539, 1.539, 1.539, 1.539, 1.539, 1.539, 1.539, 1.539, 1.539, 1.538, 1.538, 1.538, 1.537, 1.537, 1.537, 1.537, 1.537, 1.537, 1.536, 1.536, 1.535, 1.534, 1.533, 1.533, 1.532, 1.531, 1.528, 1.527, 1.527, 1.526, 1.526, 1.526, 1.526, 1.526, 1.526, 1.527, 1.527, 1.528, 1.528, 1.531, 1.532, 1.532, 1.533, 1.533, 1.533, 1.533, 1.533, 1.532, 1.532, 1.531, 1.531, 1.531, 1.531, 1.531, 1.531, 1.531, 1.532, 1.533, 1.533, 1.533, 1.533, 1.533, 1.527, 1.527, 1.52, 1.511, 1.505, 1.499, 1.49, 1.48, 1.472, 1.462, 1.454, 1.446, 1.438, 1.43, 1.425, 1.423, 1.421, 1.417, 1.417, 1.415, 1.415, 1.413, 1.413, 1.413, 1.413, 1.412, 1.412, 1.412, 1.412, 1.412, 1.412, 1.412, 1.412, 1.412, 1.412, 1.412, 1.413, 1.413, 1.413, 1.412, 1.412, 1.412, 1.41, 1.41, 1.41, 1.408, 1.408, 1.408, 1.408, 1.408, 1.408, 1.408, 1.408, 1.408, 1.408, 1.41, 1.41, 1.41, 1.41, 1.412, 1.412, 1.41, 1.41, 1.41, 1.41, 1.41, 1.408, 1.408, 1.408, 1.408, 1.408, 1.406, 1.406, 1.406, 1.406, 1.406, 1.404, 1.404, 1.404, 1.404, 1.402, 1.402, 1.4, 1.4, 1.4, 1.399, 1.399, 1.399, 1.399, 1.399, 1.399, 1.397, 1.397, 1.397, 1.395, 1.393, 1.393, 1.393, 1.393, 1.395, 1.397, 1.397, 1.399, 1.4, 1.4, 1.4, 1.4, 1.4, 1.399, 1.399, 1.399, 1.397, 1.397, 1.397, 1.397, 1.397, 1.395, 1.395, 1.395, 1.393, 1.393, 1.393, 1.393, 1.393, 1.393, 1.393, 1.393, 1.395, 1.395, 1.395, 1.395, 1.397, 1.397, 1.397, 1.397, 1.399, 1.399, 1.4, 1.404, 1.408, 1.413, 1.421, 1.429, 1.436, 1.444, 1.452, 1.458, 1.464, 1.47, 1.474, 1.479, 1.48, 1.481, 1.482, 1.483, 1.487, 1.487, 1.487, 1.487, 1.486, 1.486, 1.487, 1.487, 1.488, 1.489, 1.49, 1.49, 1.492, 1.493, 1.494, 1.494, 1.495, 1.496, 1.499, 1.499, 1.499, 1.499, 1.499, 1.499, 1.499, 1.499, 1.496, 1.496, 1.495, 1.494, 1.493, 1.492, 1.491, 1.49, 1.489, 1.489, 1.488, 1.488, 1.488, 1.489, 1.49, 1.49, 1.49, 1.49, 1.489, 1.488, 1.488, 1.487, 1.486, 1.485, 1.484, 1.483, 1.482, 1.482, 1.481, 1.48, 1.478, 1.478, 1.476, 1.476, 1.474, 1.474, 1.472, 1.471, 1.471, 1.47, 1.468, 1.468, 1.466, 1.466, 1.466, 1.466, 1.468, 1.468, 1.469, 1.47, 1.47, 1.471, 1.472, 1.472, 1.472, 1.472, 1.472, 1.472, 1.473, 1.474, 1.474, 1.474, 1.474, 1.473, 1.473, 1.473, 1.473, 1.473, 1.473, 1.472, 1.472, 1.471, 1.47, 1.468, 1.466, 1.466, 1.464, 1.462, 1.462, 1.462, 1.462, 1.462, 1.464, 1.464, 1.466, 1.466, 1.464, 1.464, 1.462, 1.462, 1.462, 1.462, 1.462, 1.462, 1.462
1.571, 1.572, 1.577, 1.578, 1.579, 1.584, 1.584, 1.584, 1.583, 1.583, 1.578, 1.578, 1.577, 1.573, 1.573, 1.573, 1.573, 1.573, 1.576, 1.577, 1.578, 1.578, 1.579, 1.579, 1.578, 1.577, 1.572, 1.571, 1.567, 1.564, 1.561, 1.556, 1.554, 1.553, 1.552, 1.548, 1.548, 1.548, 1.548, 1.548, 1.551, 1.548, 1.548, 1.551, 1.551, 1.551, 1.548, 1.548, 1.548, 1.548, 1.548, 1.548, 1.548, 1.548, 1.548, 1.548, 1.547, 1.546, 1.545, 1.544, 1.543, 1.542, 1.539, 1.539, 1.539, 1.539, 1.539, 1.539, 1.539, 1.539, 1.539, 1.539, 1.542, 1.542, 1.543, 1.544, 1.544, 1.544, 1.543, 1.542, 1.542, 1.542, 1.539, 1.539, 1.538, 1.538, 1.538, 1.538, 1.538, 1.538, 1.538, 1.537, 1.537, 1.537, 1.537, 1.536, 1.536, 1.536, 1.536, 1.537, 1.537, 1.537, 1.538, 1.538, 1.539, 1.539, 1.539, 1.539, 1.538, 1.538, 1.539, 1.539, 1.539, 1.539, 1.539, 1.539, 1.538, 1.538, 1.538, 1.537, 1.537, 1.537, 1.537, 1.537, 1.536, 1.535, 1.534, 1.533, 1.533, 1.532, 1.532, 1.528, 1.528, 1.527, 1.526, 1.526, 1.526, 1.526, 1.526, 1.526, 1.526, 1.527, 1.528, 1.528, 1.528, 1.531, 1.532, 1.533, 1.533, 1.533, 1.533, 1.533, 1.533, 1.532, 1.531, 1.531, 1.531, 1.531, 1.531, 1.531, 1.532, 1.533, 1.533, 1.534, 1.534, 1.534, 1.534, 1.533, 1.527, 1.524, 1.516, 1.509, 1.505, 1.496, 1.488, 1.48, 1.47, 1.46, 1.45, 1.442, 1.436, 1.429, 1.425, 1.423, 1.421, 1.417, 1.417, 1.415, 1.415, 1.413, 1.413, 1.413, 1.413, 1.412, 1.412, 1.412, 1.412, 1.412, 1.412, 1.412, 1.412, 1.412, 1.412, 1.413, 1.413, 1.413, 1.412, 1.412, 1.412, 1.41, 1.41, 1.41, 1.408, 1.408, 1.408, 1.408, 1.408, 1.408, 1.408, 1.408, 1.408, 1.408, 1.408, 1.41, 1.41, 1.41, 1.41, 1.412, 1.412, 1.412, 1.41, 1.41, 1.41, 1.408, 1.408, 1.408, 1.406, 1.406, 1.406, 1.406, 1.406, 1.404, 1.404, 1.404, 1.404, 1.404, 1.404, 1.402, 1.402, 1.4, 1.4, 1.4, 1.399, 1.399, 1.399, 1.399, 1.399, 1.399, 1.399, 1.397, 1.397, 1.397, 1.395, 1.395, 1.395, 1.395, 1.397, 1.397, 1.399, 1.399, 1.4, 1.4, 1.4, 1.4, 1.4, 1.399, 1.399, 1.397, 1.397, 1.397, 1.397, 1.395, 1.395, 1.395, 1.395, 1.395, 1.393, 1.393, 1.393, 1.393, 1.393, 1.393, 1.393, 1.393, 1.393, 1.395, 1.395, 1.395, 1.397, 1.397, 1.397, 1.397, 1.399, 1.399, 1.4, 1.404, 1.408, 1.415, 1.423, 1.43, 1.44, 1.448, 1.456, 1.464, 1.472, 1.478, 1.483, 1.484, 1.485, 1.486, 1.489, 1.489, 1.488, 1.488, 1.488, 1.488, 1.488, 1.488, 1.488, 1.489, 1.489, 1.49, 1.491, 1.492, 1.492, 1.493, 1.494, 1.495, 1.496, 1.496, 1.496, 1.499, 1.499, 1.499, 1.499, 1.499, 1.499, 1.499, 1.499, 1.496, 1.496, 1.495, 1.494, 1.493, 1.492, 1.491, 1.49, 1.489, 1.489, 1.489, 1.489, 1.489, 1.49, 1.49, 1.489, 1.489, 1.488, 1.488, 1.487, 1.486, 1.485, 1.484, 1.484, 1.483, 1.482, 1.482, 1.481, 1.48, 1.478, 1.478, 1.476, 1.476, 1.475, 1.474, 1.473, 1.472, 1.471, 1.47, 1.468, 1.468, 1.468, 1.468, 1.468, 1.468, 1.468, 1.468, 1.469, 1.47, 1.47, 1.471, 1.472, 1.472, 1.472, 1.472, 1.472, 1.472, 1.473, 1.473, 1.473, 1.473, 1.473, 1.472, 1.472, 1.472, 1.472, 1.472, 1.472, 1.472, 1.471, 1.471, 1.468, 1.468, 1.466, 1.466, 1.464, 1.462, 1.462, 1.462, 1.462, 1.462, 1.464, 1.464, 1.466, 1.466, 1.464, 1.464, 1.462, 1.462, 1.462, 1.462, 1.462, 1.462, 1.462
1.571, 1.572, 1.577, 1.578, 1.579, 1.583, 1.583, 1.583, 1.583, 1.579, 1.578, 1.578, 1.577, 1.573, 1.573, 1.573, 1.573, 1.573, 1.576, 1.577, 1.577, 1.578, 1.578, 1.578, 1.577, 1.576, 1.572, 1.57, 1.567, 1.564, 1.562, 1.556, 1.555, 1.553, 1.552, 1.552, 1.548, 1.548, 1.551, 1.551, 1.551, 1.551, 1.551, 1.551, 1.551, 1.551, 1.548, 1.548, 1.548, 1.548, 1.548, 1.548, 1.548, 1.548, 1.548, 1.548, 1.547, 1.546, 1.544, 1.543, 1.543, 1.542, 1.539, 1.539, 1.539, 1.539, 1.539, 1.539, 1.539, 1.539, 1.539, 1.539, 1.542, 1.542, 1.543, 1.544, 1.544, 1.544, 1.543, 1.543, 1.542, 1.542, 1.539, 1.539, 1.539, 1.539, 1.539, 1.538, 1.539, 1.539, 1.538, 1.538, 1.538, 1.537, 1.537, 1.537, 1.537, 1.536, 1.536, 1.537, 1.537, 1.537, 1.537, 1.538, 1.539, 1.539, 1.539, 1.539, 1.538, 1.538, 1.539, 1.539, 1.539, 1.539, 1.539, 1.539, 1.539, 1.539, 1.538, 1.538, 1.538, 1.537, 1.537, 1.537, 1.536, 1.536, 1.535, 1.534, 1.533, 1.533, 1.532, 1.531, 1.528, 1.527, 1.526, 1.526, 1.525, 1.525, 1.525, 1.525, 1.526, 1.526, 1.527, 1.528, 1.528, 1.531, 1.532, 1.532, 1.533, 1.533, 1.533, 1.533, 1.532, 1.532, 1.531, 1.531, 1.531, 1.531, 1.531, 1.532, 1.533, 1.533, 1.534, 1.535, 1.535, 1.535, 1.535, 1.534, 1.532, 1.528, 1.524, 1.516, 1.511, 1.505, 1.496, 1.488, 1.478, 1.468, 1.458, 1.45, 1.442, 1.434, 1.429, 1.427, 1.423, 1.421, 1.421, 1.417, 1.417, 1.415, 1.415, 1.413, 1.413, 1.413, 1.413, 1.412, 1.412, 1.412, 1.412, 1.413, 1.413, 1.413, 1.413, 1.413, 1.413, 1.413, 1.413, 1.412, 1.412, 1.412, 1.41, 1.41, 1.408, 1.408, 1.408, 1.408, 1.408, 1.408, 1.408, 1.408, 1.408, 1.408, 1.408, 1.41, 1.41, 1.41, 1.41, 1.412, 1.412, 1.41, 1.41, 1.41, 1.41, 1.408, 1.408, 1.408, 1.406, 1.406, 1.406, 1.404, 1.404, 1.404, 1.404, 1.404, 1.404, 1.404, 1.404, 1.402, 1.402, 1.4, 1.4, 1.4, 1.4, 1.4, 1.4, 1.4, 1.4, 1.4, 1.399, 1.399, 1.397, 1.397, 1.397, 1.397, 1.397, 1.397, 1.397, 1.399, 1.399, 1.4, 1.402, 1.402, 1.4, 1.4, 1.4, 1.399, 1.399, 1.397, 1.397, 1.397, 1.395, 1.395, 1.395, 1.395, 1.395, 1.395, 1.393, 1.393, 1.393, 1.393, 1.393, 1.393, 1.393, 1.393, 1.393, 1.395, 1.395, 1.395, 1.397, 1.397, 1.397, 1.397, 1.399, 1.399, 1.4, 1.404, 1.408, 1.415, 1.425, 1.432, 1.442, 1.452, 1.462, 1.47, 1.478, 1.482, 1.487, 1.488, 1.489, 1.49, 1.49, 1.49, 1.49, 1.49, 1.49, 1.49, 1.49, 1.49, 1.49, 1.49, 1.49, 1.491, 1.492, 1.493, 1.493, 1.494, 1.494, 1.495, 1.496, 1.496, 1.496, 1.496, 1.496, 1.496, 1.499, 1.499, 1.499, 1.499, 1.499, 1.499, 1.499, 1.496, 1.495, 1.494, 1.493, 1.492, 1.491, 1.49, 1.49, 1.49, 1.49, 1.49, 1.49, 1.489, 1.489, 1.488, 1.487, 1.487, 1.486, 1.485, 1.484, 1.483, 1.483, 1.482, 1.482, 1.481, 1.481, 1.48, 1.478, 1.478, 1.476, 1.476, 1.475, 1.474, 1.473, 1.472, 1.471, 1.471, 1.47, 1.468, 1.468, 1.468, 1.468, 1.468, 1.468, 1.468, 1.468, 1.469, 1.47, 1.471, 1.471, 1.472, 1.472, 1.472, 1.472, 1.472, 1.472, 1.472, 1.472, 1.472, 1.472, 1.471, 1.471, 1.471, 1.471, 1.472, 1.471, 1.471, 1.471, 1.47, 1.468, 1.466, 1.466, 1.466, 1.464, 1.464, 1.462, 1.462, 1.462, 1.464, 1.464, 1.464, 1.466, 1.466, 1.464, 1.464, 1.462, 1.462, 1.462, 1.462, 1.462, 1.462, 1.462
1.571, 1.572, 1.577, 1.578, 1.579, 1.583, 1.583, 1.583, 1.583, 1.579, 1.578, 1.578, 1.573, 1.573, 1.573, 1.573, 1.573, 1.573, 1.573, 1.576, 1.577, 1.578, 1.578, 1.578, 1.577, 1.572, 1.571, 1.569, 1.568, 1.563, 1.562, 1.561, 1.555, 1.554, 1.553, 1.552, 1.552, 1.551, 1.551, 1.551, 1.552, 1.552, 1.552, 1.552, 1.552, 1.551, 1.551, 1.551, 1.551, 1.548, 1.548, 1.548, 1.548, 1.548, 1.548, 1.548, 1.547, 1.546, 1.544, 1.543, 1.542, 1.542, 1.539, 1.539, 1.539, 1.539, 1.539, 1.539, 1.539, 1.539, 1.539, 1.539, 1.542, 1.542, 1.543, 1.544, 1.544, 1.544, 1.544, 1.543, 1.543, 1.542, 1.542, 1.542, 1.539, 1.539, 1.539, 1.539, 1.539, 1.539, 1.539, 1.539, 1.538, 1.537, 1.537, 1.537, 1.536, 1.536, 1.536, 1.536, 1.537, 1.537, 1.537, 1.538, 1.538, 1.539, 1.539, 1.539, 1.539, 1.539, 1.539, 1.539, 1.539, 1.539, 1.539, 1.539, 1.542, 1.539, 1.539, 1.539, 1.538, 1.537, 1.537, 1.537, 1.537, 1.536, 1.535, 1.534, 1.533, 1.533, 1.532, 1.532, 1.528, 1.527, 1.526, 1.526, 1.525, 1.524, 1.524, 1.524, 1.525, 1.526, 1.527, 1.528, 1.528, 1.528, 1.531, 1.532, 1.533, 1.533, 1.533, 1.532, 1.532, 1.531, 1.531, 1.531, 1.531, 1.531, 1.531, 1.532, 1.533, 1.534, 1.535, 1.535, 1.536, 1.536, 1.536, 1.535, 1.533, 1.532, 1.528, 1.52, 1.516, 1.509, 1.503, 1.494, 1.486, 1.478, 1.468, 1.46, 1.452, 1.442, 1.438, 1.434, 1.43, 1.427, 1.425, 1.423, 1.421, 1.419, 1.417, 1.415, 1.415, 1.413, 1.413, 1.413, 1.413, 1.413, 1.413, 1.413, 1.413, 1.413, 1.413, 1.413, 1.413, 1.413, 1.413, 1.413, 1.412, 1.412, 1.41, 1.41, 1.41, 1.408, 1.408, 1.408, 1.408, 1.408, 1.408, 1.408, 1.408, 1.408, 1.408, 1.41, 1.41, 1.41, 1.41, 1.41, 1.41, 1.41, 1.41, 1.41, 1.408, 1.408, 1.408, 1.406, 1.406, 1.406, 1.404, 1.404, 1.404, 1.402, 1.402, 1.402, 1.402, 1.402, 1.402, 1.402, 1.402, 1.4, 1.4, 1.4, 1.4, 1.4, 1.4, 1.4, 1.4, 1.4, 1.4, 1.399, 1.399, 1.397, 1.397, 1.397, 1.397, 1.397, 1.399, 1.399, 1.4, 1.402, 1.402, 1.402, 1.4, 1.4, 1.399, 1.399, 1.397, 1.397, 1.397, 1.395, 1.395, 1.395, 1.395, 1.395, 1.393, 1.393, 1.393, 1.393, 1.393, 1.393, 1.393, 1.393, 1.393, 1.393, 1.393, 1.395, 1.395, 1.395, 1.397, 1.397, 1.397, 1.397, 1.399, 1.399, 1.4, 1.406, 1.41, 1.417, 1.427, 1.436, 1.446, 1.456, 1.468, 1.476, 1.482, 1.489, 1.49, 1.491, 1.495, 1.492, 1.492, 1.492, 1.492, 1.491, 1.491, 1.491, 1.491, 1.491, 1.492, 1.492, 1.492, 1.493, 1.493, 1.493, 1.494, 1.494, 1.495, 1.495, 1.495, 1.496, 1.496, 1.496, 1.496, 1.496, 1.496, 1.499, 1.499, 1.499, 1.499, 1.499, 1.499, 1.499, 1.495, 1.494, 1.493, 1.493, 1.492, 1.491, 1.491, 1.49, 1.49, 1.49, 1.49, 1.489, 1.488, 1.487, 1.486, 1.485, 1.484, 1.484, 1.483, 1.482, 1.482, 1.482, 1.481, 1.481, 1.48, 1.48, 1.478, 1.478, 1.477, 1.476, 1.475, 1.474, 1.473, 1.472, 1.472, 1.471, 1.47, 1.47, 1.468, 1.468, 1.468, 1.468, 1.468, 1.468, 1.468, 1.469, 1.469, 1.47, 1.47, 1.471, 1.472, 1.472, 1.472, 1.472, 1.472, 1.472, 1.472, 1.471, 1.471, 1.471, 1.47, 1.47, 1.47, 1.471, 1.471, 1.47, 1.47, 1.468, 1.468, 1.466, 1.466, 1.466, 1.464, 1.464, 1.462, 1.462, 1.464, 1.464, 1.464, 1.466, 1.466, 1.466, 1.464, 1.464, 1.462, 1.462, 1.462, 1.462, 1.462, 1.462, 1.462
1.571, 1.572, 1.572, 1.577, 1.578, 1.578, 1.579, 1.579, 1.579, 1.578, 1.578, 1.577, 1.573, 1.573, 1.573, 1.573, 1.573, 1.573, 1.573, 1.576, 1.577, 1.577, 1.578, 1.577, 1.577, 1.572, 1.571, 1.57, 1.568, 1.563, 1.562, 1.561, 1.556, 1.555, 1.554, 1.553, 1.553, 1.552, 1.552, 1.552, 1.553, 1.553, 1.553, 1.553, 1.553, 1.552, 1.552, 1.552, 1.551, 1.551, 1.551, 1.551, 1.551, 1.551, 1.548, 1.547, 1.546, 1.545, 1.544, 1.543, 1.542, 1.542, 1.539, 1.539, 1.539, 1.539, 1.539, 1.539, 1.539, 1.539, 1.539, 1.542, 1.542, 1.542, 1.543, 1.544, 1.544, 1.544, 1.544, 1.544, 1.543, 1.543, 1.542, 1.542, 1.542, 1.542, 1.542, 1.542, 1.542, 1.542, 1.539, 1.539, 1.538, 1.538, 1.537, 1.537, 1.536, 1.535, 1.535, 1.536, 1.536, 1.537, 1.537, 1.537, 1.538, 1.539, 1.539, 1.539, 1.539, 1.539, 1.539, 1.539, 1.539, 1.539, 1.539, 1.542, 1.542, 1.542, 1.542, 1.539, 1.538, 1.538, 1.537, 1.537, 1.537, 1.536, 1.535, 1.535, 1.533, 1.533, 1.532, 1.532, 1.528, 1.527, 1.526, 1.526, 1.525, 1.524, 1.524, 1.524, 1.525, 1.525, 1.526, 1.527, 1.528, 1.528, 1.531, 1.532, 1.532, 1.533, 1.532, 1.532, 1.531, 1.531, 1.531, 1.531, 1.531, 1.531, 1.532, 1.533, 1.533, 1.534, 1.535, 1.535, 1.536, 1.537, 1.536, 1.536, 1.534, 1.533, 1.528, 1.527, 1.52, 1.516, 1.509, 1.501, 1.494, 1.484, 1.476, 1.468, 1.46, 1.452, 1.446, 1.442, 1.438, 1.434, 1.43, 1.429, 1.425, 1.423, 1.421, 1.419, 1.417, 1.415, 1.415, 1.413, 1.413, 1.413, 1.413, 1.413, 1.413, 1.413, 1.415, 1.415, 1.415, 1.413, 1.413, 1.413, 1.412, 1.412, 1.412, 1.41, 1.41, 1.408, 1.408, 1.408, 1.408, 1.408, 1.408, 1.408, 1.408, 1.408, 1.41, 1.41, 1.41, 1.41, 1.41, 1.41, 1.41, 1.41, 1.41, 1.408, 1.408, 1.408, 1.408, 1.406, 1.406, 1.406, 1.404, 1.404, 1.402, 1.402, 1.402, 1.402, 1.402, 1.402, 1.402, 1.402, 1.402, 1.4, 1.4, 1.4, 1.4, 1.4, 1.4, 1.4, 1.4, 1.4, 1.4, 1.4, 1.399, 1.399, 1.399, 1.399, 1.399, 1.399, 1.399, 1.4, 1.402, 1.402, 1.402, 1.402, 1.4, 1.4, 1.399, 1.399, 1.397, 1.397, 1.395, 1.395, 1.395, 1.395, 1.395, 1.395, 1.393, 1.393, 1.395, 1.395, 1.393, 1.393, 1.393, 1.393, 1.393, 1.393, 1.393, 1.395, 1.395, 1.395, 1.397, 1.397, 1.397, 1.399, 1.399, 1.4, 1.402, 1.406, 1.412, 1.421, 1.43, 1.438, 1.45, 1.46, 1.472, 1.48, 1.489, 1.493, 1.494, 1.495, 1.495, 1.494, 1.494, 1.493, 1.493, 1.492, 1.492, 1.492, 1.492, 1.492, 1.493, 1.493, 1.493, 1.494, 1.494, 1.494, 1.494, 1.494, 1.495, 1.495, 1.495, 1.495, 1.495, 1.495, 1.495, 1.495, 1.496, 1.496, 1.499, 1.499, 1.499, 1.499, 1.499, 1.499, 1.499, 1.495, 1.494, 1.493, 1.493, 1.492, 1.492, 1.491, 1.491, 1.49, 1.49, 1.489, 1.488, 1.487, 1.486, 1.484, 1.483, 1.482, 1.482, 1.481, 1.481, 1.481, 1.48, 1.48, 1.48, 1.479, 1.478, 1.478, 1.477, 1.476, 1.476, 1.475, 1.474, 1.473, 1.472, 1.471, 1.471, 1.47, 1.468, 1.468, 1.468, 1.468, 1.468, 1.468, 1.468, 1.468, 1.469, 1.47, 1.47, 1.471, 1.472, 1.472, 1.472, 1.472, 1.472, 1.472, 1.471, 1.471, 1.47, 1.47, 1.47, 1.47, 1.47, 1.47, 1.47, 1.47, 1.468, 1.468, 1.468, 1.466, 1.466, 1.466, 1.464, 1.464, 1.464, 1.464, 1.464, 1.464, 1.466, 1.466, 1.466, 1.466, 1.466, 1.464, 1.462, 1.462, 1.462, 1.462, 1.462, 1.462, 1.462
1.571, 1.571, 1.572, 1.577, 1.577, 1.578, 1.579, 1.579, 1.578, 1.578, 1.577, 1.577, 1.573, 1.573, 1.573, 1.573, 1.573, 1.573, 1.573, 1.573, 1.577, 1.577, 1.577, 1.577, 1.576, 1.573, 1.572, 1.57, 1.569, 1.568, 1.563, 1.562, 1.557, 1.556, 1.555, 1.554, 1.554, 1.553, 1.553, 1.553, 1.553, 1.553, 1.553, 1.553, 1.553, 1.553, 1.553, 1.552, 1.552, 1.552, 1.552, 1.551, 1.551, 1.551, 1.551, 1.547, 1.546, 1.545, 1.544, 1.543, 1.542, 1.542, 1.542, 1.542, 1.542, 1.539, 1.539, 1.539, 1.539, 1.539, 1.539, 1.542, 1.542, 1.542, 1.543, 1.544, 1.544, 1.544, 1.544, 1.544, 1.544, 1.543, 1.542, 1.542, 1.542, 1.542, 1.542, 1.542, 1.542, 1.542, 1.542, 1.539, 1.539, 1.538, 1.538, 1.537, 1.536, 1.535, 1.535, 1.535, 1.536, 1.536, 1.537, 1.537, 1.538, 1.538, 1.539, 1.539, 1.539, 1.539, 1.539, 1.539, 1.539, 1.542, 1.542, 1.542, 1.542, 1.542, 1.542, 1.539, 1.539, 1.538, 1.537, 1.537, 1.537, 1.536, 1.535, 1.535, 1.534, 1.533, 1.533, 1.532, 1.528, 1.527, 1.526, 1.526, 1.525, 1.524, 1.524, 1.524, 1.524, 1.525, 1.526, 1.527, 1.528, 1.528, 1.531, 1.532, 1.532, 1.533, 1.532, 1.531, 1.531, 1.531, 1.531, 1.531, 1.531, 1.531, 1.532, 1.533, 1.533, 1.534, 1.535, 1.536, 1.536, 1.537, 1.537, 1.536, 1.535, 1.533, 1.532, 1.527, 1.525, 1.521, 1.513, 1.509, 1.501, 1.492, 1.484, 1.478, 1.47, 1.462, 1.456, 1.452, 1.448, 1.442, 1.438, 1.434, 1.432, 1.429, 1.425, 1.423, 1.419, 1.417, 1.415, 1.415, 1.415, 1.415, 1.415, 1.415, 1.415, 1.415, 1.415, 1.415, 1.415, 1.415, 1.415, 1.413, 1.413, 1.412, 1.412, 1.41, 1.41, 1.41, 1.408, 1.408, 1.408, 1.408, 1.408, 1.408, 1.408, 1.41, 1.41, 1.41, 1.41, 1.41, 1.41, 1.41, 1.41, 1.41, 1.41, 1.408, 1.408, 1.408, 1.406, 1.406, 1.404, 1.404, 1.404, 1.402, 1.402, 1.4, 1.4, 1.4, 1.4, 1.4, 1.4, 1.4, 1.4, 1.4, 1.4, 1.4, 1.4, 1.4, 1.4, 1.4, 1.4, 1.4, 1.4, 1.4, 1.4, 1.399, 1.399, 1.399, 1.399, 1.4, 1.4, 1.4, 1.402, 1.402, 1.402, 1.402, 1.4, 1.399, 1.399, 1.397, 1.397, 1.397, 1.395, 1.395, 1.395, 1.393, 1.393, 1.395, 1.395, 1.395, 1.395, 1.395, 1.395, 1.395, 1.395, 1.395, 1.395, 1.395, 1.395, 1.395, 1.395, 1.397, 1.397, 1.397, 1.399, 1.399, 1.4, 1.4, 1.404, 1.408, 1.415, 1.423, 1.432, 1.444, 1.454, 1.466, 1.476, 1.484, 1.489, 1.494, 1.495, 1.496, 1.496, 1.495, 1.494, 1.494, 1.494, 1.493, 1.493, 1.493, 1.493, 1.493, 1.494, 1.494, 1.494, 1.494, 1.494, 1.495, 1.495, 1.495, 1.495, 1.494, 1.494, 1.494, 1.494, 1.494, 1.494, 1.494, 1.495, 1.495, 1.496, 1.499, 1.499, 1.499, 1.5, 1.5, 1.5, 1.499, 1.495, 1.494, 1.494, 1.493, 1.492, 1.492, 1.492, 1.491, 1.49, 1.489, 1.488, 1.486, 1.485, 1.483, 1.482, 1.481, 1.481, 1.48, 1.48, 1.48, 1.48, 1.48, 1.48, 1.479, 1.478, 1.478, 1.477, 1.476, 1.476, 1.475, 1.474, 1.473, 1.473, 1.472, 1.471, 1.471, 1.47, 1.468, 1.468, 1.468, 1.468, 1.468, 1.468, 1.468, 1.468, 1.47, 1.47, 1.471, 1.471, 1.472, 1.472, 1.472, 1.472, 1.472, 1.471, 1.47, 1.47, 1.47, 1.47, 1.468, 1.468, 1.468, 1.468, 1.468, 1.468, 1.468, 1.468, 1.466, 1.466, 1.466, 1.466, 1.464, 1.464, 1.464, 1.466, 1.466, 1.466, 1.466, 1.466, 1.466, 1.466, 1.464, 1.464, 1.462, 1.462, 1.462, 1.462, 1.462, 1.462
1.57, 1.571, 1.572, 1.573, 1.577, 1.577, 1.578, 1.578, 1.578, 1.577, 1.577, 1.576, 1.573, 1.573, 1.573, 1.573, 1.573, 1.573, 1.573, 1.573, 1.576, 1.576, 1.576, 1.576, 1.576, 1.573, 1.572, 1.571, 1.569, 1.568, 1.563, 1.562, 1.561, 1.557, 1.556, 1.555, 1.555, 1.555, 1.555, 1.555, 1.555, 1.555, 1.555, 1.555, 1.555, 1.554, 1.554, 1.553, 1.553, 1.553, 1.553, 1.552, 1.552, 1.551, 1.551, 1.547, 1.546, 1.545, 1.544, 1.543, 1.542, 1.542, 1.542, 1.542, 1.542, 1.542, 1.542, 1.542, 1.542, 1.542, 1.542, 1.542, 1.542, 1.543, 1.543, 1.544, 1.544, 1.544, 1.544, 1.544, 1.544, 1.544, 1.543, 1.542, 1.542, 1.542, 1.542, 1.542, 1.542, 1.542, 1.542, 1.542, 1.539, 1.539, 1.538, 1.537, 1.536, 1.535, 1.535, 1.535, 1.535, 1.536, 1.536, 1.537, 1.537, 1.538, 1.538, 1.538, 1.539, 1.539, 1.539, 1.539, 1.542, 1.542, 1.542, 1.542, 1.542, 1.542, 1.542, 1.539, 1.539, 1.538, 1.537, 1.537, 1.537, 1.536, 1.535, 1.535, 1.534, 1.533, 1.533, 1.532, 1.528, 1.527, 1.526, 1.526, 1.524, 1.524, 1.524, 1.524, 1.524, 1.525, 1.525, 1.527, 1.528, 1.528, 1.531, 1.531, 1.532, 1.532, 1.532, 1.531, 1.531, 1.531, 1.531, 1.531, 1.531, 1.531, 1.532, 1.533, 1.534, 1.535, 1.535, 1.536, 1.537, 1.537, 1.537, 1.536, 1.535, 1.534, 1.533, 1.532, 1.526, 1.522, 1.519, 1.513, 1.507, 1.501, 1.492, 1.486, 1.478, 1.472, 1.466, 1.462, 1.456, 1.452, 1.448, 1.442, 1.438, 1.434, 1.43, 1.427, 1.425, 1.421, 1.419, 1.417, 1.417, 1.415, 1.415, 1.415, 1.415, 1.415, 1.415, 1.415, 1.415, 1.415, 1.415, 1.413, 1.413, 1.412, 1.412, 1.41, 1.41, 1.41, 1.408, 1.408, 1.408, 1.408, 1.408, 1.408, 1.41, 1.41, 1.41, 1.41, 1.41, 1.41, 1.41, 1.41, 1.41, 1.41, 1.408, 1.408, 1.408, 1.408, 1.406, 1.406, 1.404, 1.404, 1.402, 1.402, 1.4, 1.4, 1.4, 1.4, 1.4, 1.4, 1.4, 1.4, 1.4, 1.4, 1.4, 1.4, 1.4, 1.4, 1.402, 1.402, 1.402, 1.402, 1.4, 1.4, 1.4, 1.4, 1.4, 1.4, 1.4, 1.4, 1.4, 1.402, 1.402, 1.402, 1.402, 1.4, 1.4, 1.399, 1.399, 1.397, 1.397, 1.397, 1.395, 1.395, 1.395, 1.393, 1.393, 1.395, 1.395, 1.395, 1.395, 1.397, 1.397, 1.395, 1.395, 1.395, 1.395, 1.395, 1.395, 1.395, 1.395, 1.397, 1.397, 1.399, 1.399, 1.4, 1.402, 1.402, 1.406, 1.412, 1.419, 1.429, 1.438, 1.45, 1.46, 1.47, 1.48, 1.488, 1.494, 1.495, 1.5, 1.5, 1.5, 1.496, 1.495, 1.495, 1.494, 1.494, 1.494, 1.494, 1.494, 1.494, 1.494, 1.495, 1.495, 1.495, 1.495, 1.495, 1.495, 1.495, 1.495, 1.494, 1.494, 1.494, 1.494, 1.494, 1.494, 1.494, 1.494, 1.494, 1.495, 1.496, 1.499, 1.499, 1.5, 1.501, 1.5, 1.499, 1.499, 1.495, 1.494, 1.494, 1.493, 1.492, 1.492, 1.491, 1.49, 1.489, 1.488, 1.486, 1.484, 1.483, 1.481, 1.48, 1.48, 1.48, 1.48, 1.48, 1.48, 1.48, 1.48, 1.48, 1.479, 1.478, 1.478, 1.477, 1.476, 1.476, 1.475, 1.474, 1.473, 1.473, 1.472, 1.471, 1.471, 1.47, 1.47, 1.468, 1.468, 1.468, 1.468, 1.468, 1.468, 1.47, 1.47, 1.471, 1.472, 1.472, 1.472, 1.472, 1.472, 1.472, 1.471, 1.47, 1.47, 1.47, 1.468, 1.468, 1.468, 1.468, 1.468, 1.468, 1.468, 1.468, 1.468, 1.466, 1.466, 1.466, 1.466, 1.466, 1.466, 1.466, 1.466, 1.466, 1.466, 1.466, 1.466, 1.466, 1.466, 1.466, 1.464, 1.464, 1.464, 1.462, 1.462, 1.462, 1.464
1.57, 1.571, 1.571, 1.572, 1.573, 1.573, 1.577, 1.577, 1.577, 1.576, 1.576, 1.573, 1.573, 1.573, 1.573, 1.573, 1.573, 1.573, 1.573, 1.573, 1.576, 1.576, 1.576, 1.576, 1.576, 1.573, 1.572, 1.571, 1.57, 1.569, 1.568, 1.563, 1.562, 1.561, 1.561, 1.556, 1.556, 1.555, 1.555, 1.555, 1.555, 1.555, 1.556, 1.556, 1.555, 1.555, 1.555, 1.554, 1.554, 1.554, 1.553, 1.553, 1.552, 1.551, 1.551, 1.547, 1.546, 1.545, 1.544, 1.543, 1.542, 1.542, 1.542, 1.542, 1.542, 1.542, 1.542, 1.542, 1.542, 1.542, 1.542, 1.542, 1.542, 1.543, 1.543, 1.544, 1.544, 1.544, 1.544, 1.544, 1.544, 1.544, 1.543, 1.543, 1.543, 1.543, 1.543, 1.543, 1.543, 1.543, 1.542, 1.542, 1.542, 1.539, 1.538, 1.537, 1.537, 1.536, 1.535, 1.535, 1.535, 1.535, 1.536, 1.536, 1.537, 1.537, 1.537, 1.538, 1.538, 1.538, 1.539, 1.539, 1.539, 1.542, 1.542, 1.542, 1.542, 1.542, 1.542, 1.539, 1.538, 1.538, 1.537, 1.537, 1.536, 1.536, 1.535, 1.535, 1.533, 1.533, 1.533, 1.532, 1.528, 1.527, 1.526, 1.525, 1.524, 1.524, 1.524, 1.524, 1.524, 1.524, 1.525, 1.526, 1.527, 1.528, 1.531, 1.531, 1.532, 1.532, 1.531, 1.531, 1.531, 1.531, 1.531, 1.531, 1.531, 1.531, 1.532, 1.533, 1.534, 1.535, 1.535, 1.536, 1.537, 1.537, 1.537, 1.536, 1.535, 1.534, 1.533, 1.532, 1.526, 1.523, 1.52, 1.519, 1.511, 1.507, 1.501, 1.494, 1.486, 1.48, 1.476, 1.47, 1.466, 1.462, 1.456, 1.452, 1.446, 1.442, 1.438, 1.434, 1.429, 1.425, 1.423, 1.419, 1.419, 1.417, 1.417, 1.415, 1.415, 1.417, 1.415, 1.415, 1.417, 1.415, 1.415, 1.415, 1.413, 1.413, 1.412, 1.412, 1.41, 1.41, 1.41, 1.41, 1.408, 1.408, 1.408, 1.41, 1.41, 1.41, 1.41, 1.41, 1.41, 1.41, 1.41, 1.41, 1.41, 1.41, 1.408, 1.408, 1.408, 1.406, 1.406, 1.404, 1.402, 1.402, 1.402, 1.4, 1.4, 1.4, 1.4, 1.4, 1.4, 1.4, 1.4, 1.4, 1.4, 1.4, 1.402, 1.402, 1.402, 1.402, 1.402, 1.402, 1.402, 1.402, 1.402, 1.402, 1.4, 1.4, 1.4, 1.4, 1.4, 1.4, 1.402, 1.402, 1.402, 1.402, 1.4, 1.4, 1.399, 1.399, 1.397, 1.397, 1.397, 1.397, 1.395, 1.395, 1.395, 1.395, 1.395, 1.395, 1.395, 1.395, 1.397, 1.397, 1.397, 1.397, 1.397, 1.395, 1.395, 1.395, 1.395, 1.395, 1.397, 1.397, 1.399, 1.4, 1.4, 1.402, 1.404, 1.406, 1.41, 1.415, 1.425, 1.432, 1.444, 1.456, 1.466, 1.476, 1.484, 1.492, 1.5, 1.501, 1.501, 1.501, 1.5, 1.5, 1.496, 1.495, 1.495, 1.495, 1.494, 1.494, 1.494, 1.495, 1.495, 1.495, 1.496, 1.496, 1.496, 1.496, 1.496, 1.496, 1.495, 1.494, 1.494, 1.494, 1.493, 1.493, 1.493, 1.493, 1.493, 1.494, 1.495, 1.495, 1.499, 1.499, 1.5, 1.501, 1.5, 1.5, 1.499, 1.496, 1.495, 1.495, 1.494, 1.493, 1.493, 1.492, 1.49, 1.489, 1.488, 1.486, 1.484, 1.482, 1.481, 1.48, 1.479, 1.479, 1.479, 1.479, 1.48, 1.48, 1.48, 1.48, 1.479, 1.479, 1.478, 1.478, 1.477, 1.476, 1.475, 1.474, 1.474, 1.473, 1.473, 1.472, 1.471, 1.471, 1.47, 1.47, 1.468, 1.468, 1.468, 1.468, 1.468, 1.47, 1.47, 1.471, 1.472, 1.472, 1.472, 1.472, 1.472, 1.472, 1.471, 1.47, 1.47, 1.468, 1.468, 1.468, 1.468, 1.468, 1.468, 1.468, 1.468, 1.468, 1.466, 1.466, 1.466, 1.466, 1.466, 1.466, 1.466, 1.466, 1.466, 1.466, 1.466, 1.466, 1.466, 1.466, 1.466, 1.466, 1.464, 1.464, 1.464, 1.464, 1.464, 1.464, 1.464
1.57, 1.57, 1.571, 1.572, 1.572, 1.573, 1.573, 1.576, 1.576, 1.576, 1.576, 1.573, 1.573, 1.573, 1.573, 1.573, 1.573, 1.573, 1.573, 1.573, 1.576, 1.576, 1.576, 1.576, 1.576, 1.573, 1.572, 1.571, 1.57, 1.569, 1.568, 1.563, 1.563, 1.562, 1.561, 1.561, 1.556, 1.556, 1.556, 1.556, 1.556, 1.556, 1.556, 1.557, 1.556, 1.556, 1.556, 1.555, 1.555, 1.555, 1.554, 1.553, 1.553, 1.552, 1.551, 1.547, 1.546, 1.545, 1.544, 1.543, 1.542, 1.542, 1.542, 1.542, 1.542, 1.542, 1.542, 1.542, 1.542, 1.542, 1.542, 1.542, 1.543, 1.543, 1.544, 1.544, 1.544, 1.544, 1.544, 1.544, 1.544, 1.544, 1.544, 1.544, 1.544, 1.544, 1.544, 1.544, 1.544, 1.543, 1.542, 1.542, 1.542, 1.539, 1.538, 1.537, 1.537, 1.536, 1.535, 1.535, 1.535, 1.535, 1.535, 1.535, 1.536, 1.537, 1.537, 1.537, 1.537, 1.538, 1.538, 1.539, 1.539, 1.539, 1.542, 1.542, 1.542, 1.542, 1.539, 1.539, 1.538, 1.537, 1.537, 1.537, 1.536, 1.535, 1.535, 1.534, 1.533, 1.533, 1.533, 1.532, 1.528, 1.527, 1.526, 1.525, 1.524, 1.523, 1.523, 1.523, 1.523, 1.524, 1.525, 1.526, 1.527, 1.528, 1.531, 1.531, 1.532, 1.531, 1.531, 1.531, 1.528, 1.528, 1.528, 1.531, 1.531, 1.531, 1.532, 1.533, 1.534, 1.535, 1.535, 1.536, 1.537, 1.537, 1.537, 1.536, 1.535, 1.534, 1.533, 1.532, 1.527, 1.524, 1.521, 1.521, 1.516, 1.511, 1.505, 1.501, 1.494, 1.488, 1.484, 1.48, 1.474, 1.47, 1.466, 1.46, 1.456, 1.45, 1.444, 1.44, 1.434, 1.43, 1.425, 1.423, 1.421, 1.419, 1.419, 1.417, 1.417, 1.417, 1.417, 1.417, 1.417, 1.415, 1.415, 1.415, 1.413, 1.413, 1.412, 1.412, 1.41, 1.41, 1.41, 1.41, 1.41, 1.41, 1.41, 1.41, 1.41, 1.41, 1.41, 1.41, 1.41, 1.41, 1.41, 1.41, 1.41, 1.408, 1.408, 1.408, 1.408, 1.406, 1.406, 1.404, 1.402, 1.402, 1.402, 1.4, 1.4, 1.4, 1.399, 1.399, 1.399, 1.4, 1.4, 1.4, 1.4, 1.4, 1.402, 1.402, 1.402, 1.402, 1.402, 1.402, 1.402, 1.402, 1.402, 1.402, 1.402, 1.402, 1.402, 1.4, 1.4, 1.402, 1.402, 1.402, 1.402, 1.4, 1.4, 1.399, 1.399, 1.397, 1.397, 1.397, 1.397, 1.395, 1.395, 1.395, 1.395, 1.395, 1.395, 1.395, 1.395, 1.397, 1.397, 1.397, 1.397, 1.397, 1.397, 1.397, 1.397, 1.397, 1.397, 1.397, 1.397, 1.399, 1.4, 1.402, 1.404, 1.404, 1.406, 1.41, 1.413, 1.421, 1.429, 1.438, 1.448, 1.458, 1.47, 1.48, 1.488, 1.496, 1.501, 1.502, 1.502, 1.502, 1.501, 1.5, 1.5, 1.496, 1.496, 1.496, 1.495, 1.495, 1.495, 1.495, 1.495, 1.496, 1.499, 1.499, 1.499, 1.499, 1.499, 1.496, 1.495, 1.494, 1.494, 1.493, 1.493, 1.492, 1.492, 1.492, 1.492, 1.493, 1.494, 1.495, 1.496, 1.5, 1.5, 1.501, 1.501, 1.5, 1.5, 1.499, 1.496, 1.495, 1.495, 1.494, 1.494, 1.492, 1.491, 1.49, 1.488, 1.486, 1.484, 1.482, 1.48, 1.479, 1.478, 1.478, 1.478, 1.479, 1.479, 1.48, 1.48, 1.48, 1.48, 1.479, 1.478, 1.478, 1.477, 1.476, 1.476, 1.475, 1.474, 1.474, 1.473, 1.473, 1.472, 1.471, 1.471, 1.47, 1.468, 1.468, 1.468, 1.468, 1.47, 1.47, 1.471, 1.471, 1.472, 1.472, 1.473, 1.472, 1.472, 1.472, 1.471, 1.47, 1.468, 1.468, 1.468, 1.468, 1.468, 1.468, 1.468, 1.468, 1.468, 1.468, 1.466, 1.466, 1.466, 1.466, 1.466, 1.466, 1.466, 1.466, 1.468, 1.468, 1.468, 1.468, 1.468, 1.466, 1.466, 1.466, 1.464, 1.464, 1.464, 1.464, 1.464, 1.464, 1.464
1.57, 1.57, 1.571, 1.571, 1.572, 1.572, 1.573, 1.573, 1.576, 1.576, 1.576, 1.573, 1.573, 1.573, 1.573, 1.573, 1.573, 1.573, 1.573, 1.576, 1.576, 1.576, 1.576, 1.576, 1.576, 1.573, 1.573, 1.572, 1.571, 1.569, 1.568, 1.568, 1.563, 1.563, 1.562, 1.562, 1.561, 1.557, 1.557, 1.557, 1.557, 1.557, 1.56, 1.56, 1.56, 1.56, 1.557, 1.556, 1.556, 1.556, 1.555, 1.554, 1.553, 1.552, 1.548, 1.547, 1.546, 1.545, 1.544, 1.543, 1.542, 1.542, 1.542, 1.542, 1.542, 1.542, 1.543, 1.543, 1.543, 1.542, 1.542, 1.542, 1.542, 1.543, 1.543, 1.544, 1.544, 1.544, 1.544, 1.544, 1.544, 1.544, 1.544, 1.544, 1.544, 1.544, 1.544, 1.544, 1.544, 1.544, 1.543, 1.542, 1.542, 1.542, 1.538, 1.537, 1.537, 1.536, 1.535, 1.535, 1.535, 1.535, 1.535, 1.535, 1.536, 1.536, 1.537, 1.537, 1.537, 1.537, 1.538, 1.538, 1.539, 1.539, 1.539, 1.539, 1.542, 1.539, 1.539, 1.538, 1.538, 1.537, 1.537, 1.536, 1.536, 1.535, 1.535, 1.534, 1.533, 1.533, 1.533, 1.532, 1.528, 1.527, 1.526, 1.525, 1.524, 1.523, 1.522, 1.522, 1.522, 1.523, 1.524, 1.526, 1.527, 1.528, 1.531, 1.531, 1.532, 1.531, 1.531, 1.531, 1.528, 1.528, 1.528, 1.528, 1.531, 1.531, 1.532, 1.533, 1.534, 1.535, 1.535, 1.536, 1.537, 1.537, 1.537, 1.536, 1.535, 1.533, 1.532, 1.531, 1.528, 1.525, 1.523, 1.522, 1.521, 1.517, 1.511, 1.504, 1.504, 1.495, 1.495, 1.488, 1.484, 1.48, 1.474, 1.47, 1.464, 1.46, 1.454, 1.446, 1.44, 1.436, 1.43, 1.427, 1.423, 1.421, 1.419, 1.419, 1.417, 1.417, 1.417, 1.417, 1.417, 1.415, 1.415, 1.415, 1.415, 1.413, 1.413, 1.412, 1.412, 1.41, 1.41, 1.41, 1.41, 1.41, 1.41, 1.41, 1.41, 1.41, 1.41, 1.41, 1.41, 1.41, 1.41, 1.41, 1.408, 1.408, 1.408, 1.408, 1.406, 1.406, 1.404, 1.402, 1.402, 1.4, 1.4, 1.4, 1.399, 1.399, 1.399, 1.399, 1.399, 1.399, 1.399, 1.4, 1.4, 1.4, 1.4, 1.402, 1.402, 1.402, 1.402, 1.402, 1.402, 1.404, 1.404, 1.402, 1.402, 1.402, 1.402, 1.402, 1.402, 1.402, 1.4, 1.4, 1.4, 1.4, 1.399, 1.399, 1.397, 1.397, 1.397, 1.397, 1.397, 1.395, 1.395, 1.395, 1.395, 1.395, 1.395, 1.395, 1.395, 1.397, 1.397, 1.397, 1.399, 1.399, 1.399, 1.399, 1.399, 1.399, 1.399, 1.399, 1.399, 1.399, 1.402, 1.404, 1.406, 1.408, 1.41, 1.413, 1.417, 1.427, 1.434, 1.444, 1.454, 1.466, 1.476, 1.484, 1.492, 1.5, 1.503, 1.503, 1.503, 1.503, 1.502, 1.501, 1.5, 1.5, 1.496, 1.496, 1.496, 1.496, 1.496, 1.496, 1.499, 1.5, 1.5, 1.5, 1.5, 1.499, 1.499, 1.496, 1.495, 1.494, 1.494, 1.493, 1.492, 1.492, 1.491, 1.491, 1.492, 1.492, 1.493, 1.494, 1.495, 1.499, 1.5, 1.501, 1.501, 1.501, 1.5, 1.5, 1.499, 1.496, 1.496, 1.495, 1.495, 1.493, 1.492, 1.491, 1.488, 1.486, 1.484, 1.482, 1.48, 1.479, 1.478, 1.478, 1.478, 1.478, 1.479, 1.48, 1.48, 1.48, 1.48, 1.48, 1.479, 1.478, 1.478, 1.477, 1.476, 1.475, 1.474, 1.474, 1.474, 1.473, 1.472, 1.472, 1.471, 1.47, 1.47, 1.47, 1.47, 1.47, 1.47, 1.47, 1.471, 1.472, 1.472, 1.473, 1.473, 1.473, 1.472, 1.472, 1.471, 1.47, 1.468, 1.468, 1.468, 1.468, 1.468, 1.468, 1.468, 1.468, 1.468, 1.468, 1.466, 1.466, 1.466, 1.466, 1.466, 1.466, 1.468, 1.468, 1.468, 1.468, 1.468, 1.468, 1.468, 1.466, 1.466, 1.466, 1.466, 1.464, 1.464, 1.464, 1.464, 1.464, 1.464
1.57, 1.57, 1.571, 1.571, 1.571, 1.572, 1.572, 1.572, 1.573, 1.576, 1.576, 1.573, 1.573, 1.573, 1.573, 1.573, 1.573, 1.573, 1.577, 1.577, 1.577, 1.577, 1.577, 1.577, 1.577, 1.576, 1.573, 1.572, 1.571, 1.57, 1.569, 1.568, 1.567, 1.564, 1.563, 1.562, 1.562, 1.561, 1.561, 1.56, 1.56, 1.56, 1.56, 1.56, 1.56, 1.56, 1.56, 1.56, 1.557, 1.556, 1.555, 1.554, 1.553, 1.552, 1.548, 1.547, 1.546, 1.544, 1.544, 1.543, 1.542, 1.542, 1.542, 1.542, 1.543, 1.543, 1.543, 1.543, 1.543, 1.543, 1.543, 1.543, 1.542, 1.542, 1.543, 1.544, 1.544, 1.544, 1.544, 1.545, 1.545, 1.545, 1.545, 1.544, 1.544, 1.544, 1.544, 1.544, 1.544, 1.544, 1.543, 1.543, 1.542, 1.542, 1.538, 1.538, 1.537, 1.536, 1.535, 1.535, 1.535, 1.535, 1.535, 1.535, 1.535, 1.536, 1.537, 1.537, 1.537, 1.537, 1.537, 1.538, 1.539, 1.539, 1.539, 1.539, 1.539, 1.539, 1.538, 1.538, 1.537, 1.537, 1.536, 1.536, 1.535, 1.534, 1.534, 1.533, 1.533, 1.533, 1.533, 1.532, 1.528, 1.527, 1.526, 1.525, 1.524, 1.522, 1.521, 1.521, 1.522, 1.523, 1.524, 1.526, 1.527, 1.528, 1.531, 1.532, 1.532, 1.531, 1.531, 1.528, 1.528, 1.528, 1.528, 1.528, 1.528, 1.531, 1.532, 1.533, 1.534, 1.535, 1.535, 1.536, 1.537, 1.537, 1.537, 1.536, 1.535, 1.533, 1.532, 1.531, 1.527, 1.526, 1.524, 1.522, 1.521, 1.518, 1.512, 1.512, 1.507, 1.506, 1.501, 1.495, 1.495, 1.488, 1.484, 1.48, 1.474, 1.468, 1.462, 1.456, 1.448, 1.442, 1.436, 1.43, 1.427, 1.423, 1.421, 1.419, 1.419, 1.419, 1.417, 1.417, 1.417, 1.417, 1.415, 1.415, 1.415, 1.413, 1.413, 1.413, 1.412, 1.412, 1.41, 1.41, 1.41, 1.41, 1.41, 1.41, 1.41, 1.41, 1.41, 1.41, 1.41, 1.41, 1.41, 1.41, 1.408, 1.408, 1.408, 1.408, 1.406, 1.406, 1.404, 1.402, 1.402, 1.4, 1.4, 1.4, 1.399, 1.399, 1.399, 1.399, 1.399, 1.399, 1.399, 1.4, 1.4, 1.4, 1.4, 1.402, 1.402, 1.402, 1.402, 1.402, 1.402, 1.404, 1.404, 1.404, 1.402, 1.402, 1.402, 1.402, 1.402, 1.402, 1.4, 1.4, 1.4, 1.399, 1.399, 1.397, 1.397, 1.397, 1.397, 1.397, 1.397, 1.395, 1.395, 1.395, 1.395, 1.395, 1.395, 1.395, 1.395, 1.397, 1.397, 1.399, 1.399, 1.399, 1.4, 1.4, 1.4, 1.4, 1.4, 1.4, 1.402, 1.402, 1.404, 1.406, 1.408, 1.41, 1.412, 1.417, 1.423, 1.43, 1.44, 1.45, 1.46, 1.472, 1.48, 1.488, 1.496, 1.501, 1.504, 1.504, 1.504, 1.504, 1.503, 1.502, 1.501, 1.5, 1.5, 1.496, 1.496, 1.496, 1.499, 1.499, 1.5, 1.5, 1.501, 1.501, 1.501, 1.5, 1.5, 1.499, 1.495, 1.494, 1.494, 1.493, 1.492, 1.491, 1.491, 1.49, 1.491, 1.492, 1.493, 1.494, 1.495, 1.499, 1.5, 1.5, 1.501, 1.501, 1.501, 1.5, 1.499, 1.499, 1.496, 1.496, 1.495, 1.494, 1.492, 1.491, 1.488, 1.487, 1.483, 1.482, 1.48, 1.479, 1.478, 1.478, 1.478, 1.478, 1.479, 1.48, 1.48, 1.481, 1.481, 1.48, 1.479, 1.478, 1.478, 1.477, 1.476, 1.475, 1.474, 1.474, 1.474, 1.473, 1.473, 1.472, 1.471, 1.471, 1.47, 1.47, 1.47, 1.47, 1.471, 1.471, 1.472, 1.472, 1.473, 1.473, 1.474, 1.473, 1.472, 1.472, 1.471, 1.47, 1.468, 1.468, 1.468, 1.468, 1.468, 1.468, 1.468, 1.468, 1.468, 1.468, 1.468, 1.466, 1.466, 1.466, 1.468, 1.468, 1.468, 1.469, 1.469, 1.47, 1.47, 1.469, 1.468, 1.468, 1.466, 1.466, 1.464, 1.464, 1.464, 1.464, 1.464, 1.464, 1.464
1.57, 1.57, 1.57, 1.57, 1.571, 1.571, 1.571, 1.572, 1.572, 1.573, 1.573, 1.573, 1.573, 1.573, 1.573, 1.573, 1.576, 1.577, 1.577, 1.578, 1.578, 1.578, 1.578, 1.578, 1.577, 1.576, 1.576, 1.572, 1.572, 1.571, 1.57, 1.569, 1.568, 1.567, 1.564, 1.563, 1.562, 1.562, 1.561, 1.561, 1.561, 1.561, 1.561, 1.561, 1.561, 1.561, 1.561, 1.56, 1.56, 1.56, 1.556, 1.555, 1.553, 1.552, 1.547, 1.547, 1.546, 1.544, 1.544, 1.543, 1.542, 1.542, 1.542, 1.543, 1.543, 1.544, 1.544, 1.544, 1.544, 1.544, 1.544, 1.543, 1.543, 1.543, 1.543, 1.543, 1.544, 1.544, 1.544, 1.545, 1.546, 1.546, 1.545, 1.545, 1.545, 1.545, 1.545, 1.544, 1.544, 1.544, 1.544, 1.543, 1.542, 1.542, 1.542, 1.538, 1.537, 1.536, 1.535, 1.535, 1.535, 1.535, 1.535, 1.535, 1.535, 1.536, 1.536, 1.537, 1.537, 1.537, 1.537, 1.537, 1.538, 1.539, 1.539, 1.539, 1.539, 1.538, 1.538, 1.537, 1.537, 1.536, 1.535, 1.535, 1.534, 1.534, 1.533, 1.533, 1.533, 1.533, 1.533, 1.532, 1.528, 1.527, 1.526, 1.525, 1.524, 1.522, 1.521, 1.521, 1.522, 1.523, 1.524, 1.526, 1.527, 1.528, 1.531, 1.532, 1.532, 1.531, 1.531, 1.528, 1.528, 1.528, 1.528, 1.528, 1.528, 1.531, 1.532, 1.533, 1.534, 1.535, 1.535, 1.536, 1.537, 1.537, 1.536, 1.536, 1.535, 1.533, 1.532, 1.528, 1.527, 1.526, 1.524, 1.523, 1.522, 1.518, 1.517, 1.512, 1.512, 1.506, 1.505, 1.504, 1.499, 1.496, 1.492, 1.488, 1.482, 1.476, 1.47, 1.464, 1.456, 1.448, 1.44, 1.434, 1.43, 1.427, 1.423, 1.421, 1.419, 1.419, 1.419, 1.417, 1.417, 1.417, 1.417, 1.415, 1.415, 1.413, 1.413, 1.413, 1.412, 1.412, 1.412, 1.41, 1.41, 1.41, 1.41, 1.41, 1.41, 1.41, 1.41, 1.41, 1.41, 1.41, 1.41, 1.41, 1.408, 1.408, 1.408, 1.406, 1.406, 1.406, 1.404, 1.402, 1.402, 1.4, 1.4, 1.4, 1.399, 1.399, 1.399, 1.399, 1.399, 1.399, 1.399, 1.4, 1.4, 1.4, 1.4, 1.402, 1.402, 1.402, 1.402, 1.402, 1.402, 1.402, 1.402, 1.402, 1.402, 1.402, 1.402, 1.402, 1.402, 1.4, 1.4, 1.4, 1.4, 1.399, 1.397, 1.397, 1.397, 1.397, 1.397, 1.397, 1.397, 1.395, 1.395, 1.395, 1.395, 1.395, 1.395, 1.395, 1.397, 1.397, 1.399, 1.399, 1.4, 1.4, 1.4, 1.402, 1.402, 1.402, 1.402, 1.402, 1.404, 1.404, 1.406, 1.41, 1.41, 1.413, 1.417, 1.423, 1.43, 1.438, 1.448, 1.458, 1.468, 1.478, 1.486, 1.492, 1.5, 1.504, 1.505, 1.506, 1.506, 1.505, 1.504, 1.503, 1.502, 1.501, 1.501, 1.5, 1.5, 1.499, 1.499, 1.5, 1.501, 1.502, 1.502, 1.502, 1.502, 1.501, 1.5, 1.5, 1.495, 1.494, 1.494, 1.492, 1.492, 1.491, 1.49, 1.49, 1.49, 1.491, 1.492, 1.493, 1.494, 1.495, 1.5, 1.5, 1.501, 1.501, 1.501, 1.5, 1.499, 1.499, 1.499, 1.496, 1.495, 1.494, 1.493, 1.492, 1.488, 1.487, 1.484, 1.483, 1.48, 1.479, 1.478, 1.478, 1.478, 1.479, 1.479, 1.48, 1.481, 1.482, 1.481, 1.481, 1.48, 1.479, 1.478, 1.477, 1.476, 1.476, 1.475, 1.474, 1.474, 1.474, 1.473, 1.473, 1.472, 1.472, 1.471, 1.471, 1.471, 1.471, 1.471, 1.472, 1.472, 1.473, 1.473, 1.474, 1.474, 1.473, 1.472, 1.472, 1.471, 1.471, 1.468, 1.468, 1.468, 1.468, 1.468, 1.468, 1.468, 1.468, 1.468, 1.468, 1.468, 1.468, 1.468, 1.468, 1.469, 1.469, 1.47, 1.47, 1.47, 1.47, 1.47, 1.469, 1.469, 1.468, 1.466, 1.466, 1.464, 1.464, 1.464, 1.464, 1.464, 1.464, 1.464
1.571, 1.57, 1.569, 1.57, 1.571, 1.571, 1.571, 1.571, 1.572, 1.573, 1.573, 1.573, 1.573, 1.573, 1.576, 1.576, 1.576, 1.577, 1.578, 1.578, 1.578, 1.578, 1.578, 1.578, 1.577, 1.577, 1.576, 1.573, 1.572, 1.572, 1.571, 1.57, 1.569, 1.568, 1.567, 1.564, 1.563, 1.563, 1.562, 1.562, 1.562, 1.562, 1.562, 1.562, 1.562, 1.562, 1.561, 1.561, 1.56, 1.56, 1.556, 1.555, 1.553, 1.552, 1.547, 1.546, 1.546, 1.544, 1.544, 1.543, 1.542, 1.542, 1.543, 1.543, 1.544, 1.544, 1.544, 1.544, 1.544, 1.544, 1.544, 1.543, 1.543, 1.543, 1.543, 1.543, 1.543, 1.543, 1.544, 1.545, 1.546, 1.546, 1.546, 1.546, 1.546, 1.546, 1.545, 1.545, 1.545, 1.545, 1.544, 1.544, 1.543, 1.542, 1.542, 1.538, 1.537, 1.536, 1.535, 1.535, 1.535, 1.535, 1.535, 1.535, 1.535, 1.535, 1.536, 1.536, 1.537, 1.537, 1.537, 1.537, 1.538, 1.538, 1.538, 1.538, 1.538, 1.538, 1.537, 1.537, 1.536, 1.535, 1.535, 1.534, 1.533, 1.533, 1.533, 1.533, 1.533, 1.533, 1.533, 1.532, 1.528, 1.527, 1.526, 1.525, 1.524, 1.523, 1.522, 1.522, 1.523, 1.524, 1.525, 1.526, 1.527, 1.528, 1.531, 1.532, 1.532, 1.531, 1.531, 1.528, 1.528, 1.528, 1.528, 1.528, 1.528, 1.531, 1.532, 1.533, 1.534, 1.535, 1.535, 1.536, 1.537, 1.537, 1.536, 1.535, 1.535, 1.533, 1.532, 1.528, 1.527, 1.526, 1.524, 1.523, 1.522, 1.519, 1.518, 1.517, 1.512, 1.511, 1.51, 1.508, 1.506, 1.504, 1.499, 1.494, 1.49, 1.484, 1.478, 1.472, 1.464, 1.456, 1.448, 1.44, 1.434, 1.429, 1.427, 1.423, 1.421, 1.419, 1.419, 1.419, 1.417, 1.417, 1.417, 1.415, 1.415, 1.413, 1.413, 1.413, 1.413, 1.412, 1.412, 1.412, 1.41, 1.41, 1.41, 1.41, 1.41, 1.41, 1.41, 1.41, 1.41, 1.41, 1.41, 1.408, 1.408, 1.408, 1.408, 1.406, 1.406, 1.406, 1.404, 1.402, 1.402, 1.4, 1.4, 1.4, 1.399, 1.399, 1.399, 1.399, 1.399, 1.399, 1.399, 1.4, 1.4, 1.4, 1.4, 1.402, 1.402, 1.402, 1.402, 1.402, 1.402, 1.402, 1.402, 1.402, 1.402, 1.402, 1.402, 1.402, 1.4, 1.4, 1.4, 1.4, 1.399, 1.399, 1.397, 1.397, 1.397, 1.397, 1.397, 1.397, 1.397, 1.395, 1.395, 1.395, 1.395, 1.395, 1.395, 1.397, 1.397, 1.397, 1.399, 1.4, 1.4, 1.402, 1.402, 1.404, 1.404, 1.406, 1.406, 1.406, 1.408, 1.41, 1.412, 1.413, 1.415, 1.419, 1.423, 1.429, 1.438, 1.446, 1.454, 1.464, 1.474, 1.482, 1.49, 1.496, 1.501, 1.505, 1.506, 1.507, 1.507, 1.506, 1.505, 1.504, 1.503, 1.502, 1.502, 1.501, 1.501, 1.5, 1.5, 1.501, 1.502, 1.503, 1.503, 1.503, 1.503, 1.502, 1.501, 1.5, 1.495, 1.495, 1.494, 1.492, 1.492, 1.491, 1.49, 1.49, 1.49, 1.491, 1.492, 1.493, 1.494, 1.495, 1.499, 1.5, 1.5, 1.501, 1.501, 1.5, 1.499, 1.499, 1.499, 1.496, 1.496, 1.495, 1.494, 1.493, 1.489, 1.488, 1.484, 1.483, 1.48, 1.479, 1.478, 1.478, 1.478, 1.479, 1.48, 1.48, 1.481, 1.482, 1.482, 1.481, 1.48, 1.479, 1.478, 1.477, 1.476, 1.476, 1.475, 1.474, 1.474, 1.474, 1.474, 1.473, 1.473, 1.472, 1.472, 1.472, 1.472, 1.472, 1.472, 1.473, 1.473, 1.474, 1.474, 1.474, 1.474, 1.474, 1.473, 1.472, 1.472, 1.471, 1.47, 1.468, 1.468, 1.468, 1.468, 1.468, 1.468, 1.468, 1.468, 1.468, 1.468, 1.468, 1.468, 1.468, 1.469, 1.47, 1.47, 1.47, 1.47, 1.47, 1.47, 1.469, 1.469, 1.468, 1.466, 1.466, 1.464, 1.464, 1.464, 1.464, 1.464, 1.464, 1.464
1.571, 1.57, 1.569, 1.57, 1.571, 1.571, 1.571, 1.571, 1.572, 1.573, 1.573, 1.576, 1.573, 1.573, 1.576, 1.576, 1.577, 1.578, 1.578, 1.579, 1.579, 1.579, 1.579, 1.578, 1.578, 1.577, 1.576, 1.573, 1.573, 1.572, 1.572, 1.571, 1.57, 1.569, 1.568, 1.567, 1.564, 1.563, 1.563, 1.563, 1.562, 1.562, 1.562, 1.562, 1.562, 1.562, 1.562, 1.561, 1.561, 1.56, 1.556, 1.555, 1.553, 1.552, 1.547, 1.546, 1.546, 1.545, 1.544, 1.543, 1.543, 1.543, 1.543, 1.544, 1.544, 1.545, 1.545, 1.544, 1.544, 1.544, 1.544, 1.544, 1.543, 1.542, 1.542, 1.542, 1.542, 1.543, 1.544, 1.545, 1.546, 1.546, 1.546, 1.546, 1.546, 1.546, 1.546, 1.546, 1.546, 1.545, 1.544, 1.544, 1.543, 1.542, 1.542, 1.538, 1.538, 1.537, 1.536, 1.535, 1.535, 1.535, 1.535, 1.535, 1.535, 1.535, 1.535, 1.536, 1.536, 1.537, 1.537, 1.537, 1.537, 1.537, 1.537, 1.537, 1.537, 1.537, 1.537, 1.536, 1.535, 1.535, 1.534, 1.533, 1.533, 1.533, 1.533, 1.533, 1.533, 1.533, 1.533, 1.532, 1.531, 1.528, 1.527, 1.526, 1.525, 1.524, 1.523, 1.523, 1.523, 1.524, 1.525, 1.526, 1.527, 1.528, 1.531, 1.532, 1.532, 1.531, 1.531, 1.528, 1.528, 1.528, 1.528, 1.528, 1.528, 1.532, 1.532, 1.533, 1.534, 1.535, 1.535, 1.536, 1.537, 1.537, 1.536, 1.535, 1.534, 1.533, 1.532, 1.528, 1.527, 1.526, 1.524, 1.523, 1.522, 1.52, 1.519, 1.518, 1.517, 1.512, 1.511, 1.509, 1.508, 1.504, 1.503, 1.501, 1.5, 1.492, 1.486, 1.48, 1.472, 1.464, 1.454, 1.446, 1.44, 1.434, 1.429, 1.425, 1.423, 1.421, 1.419, 1.419, 1.419, 1.417, 1.417, 1.417, 1.415, 1.415, 1.413, 1.413, 1.413, 1.412, 1.412, 1.412, 1.41, 1.41, 1.41, 1.41, 1.41, 1.41, 1.41, 1.41, 1.41, 1.41, 1.41, 1.408, 1.408, 1.408, 1.408, 1.406, 1.406, 1.406, 1.404, 1.402, 1.402, 1.4, 1.4, 1.4, 1.399, 1.399, 1.399, 1.399, 1.399, 1.399, 1.399, 1.4, 1.4, 1.4, 1.4, 1.402, 1.402, 1.402, 1.402, 1.402, 1.402, 1.402, 1.402, 1.402, 1.402, 1.402, 1.402, 1.4, 1.4, 1.4, 1.4, 1.399, 1.399, 1.397, 1.397, 1.397, 1.397, 1.397, 1.397, 1.397, 1.397, 1.395, 1.395, 1.395, 1.395, 1.395, 1.395, 1.397, 1.397, 1.399, 1.399, 1.4, 1.402, 1.404, 1.404, 1.406, 1.408, 1.408, 1.408, 1.408, 1.41, 1.413, 1.415, 1.417, 1.421, 1.425, 1.43, 1.438, 1.446, 1.454, 1.462, 1.47, 1.48, 1.489, 1.494, 1.502, 1.503, 1.506, 1.507, 1.507, 1.507, 1.507, 1.506, 1.505, 1.504, 1.503, 1.503, 1.502, 1.501, 1.501, 1.501, 1.502, 1.503, 1.504, 1.504, 1.504, 1.504, 1.503, 1.501, 1.5, 1.496, 1.495, 1.494, 1.493, 1.492, 1.491, 1.49, 1.49, 1.49, 1.491, 1.492, 1.493, 1.494, 1.495, 1.499, 1.499, 1.5, 1.501, 1.501, 1.5, 1.499, 1.499, 1.499, 1.496, 1.496, 1.495, 1.494, 1.492, 1.49, 1.489, 1.484, 1.484, 1.48, 1.479, 1.479, 1.478, 1.479, 1.48, 1.48, 1.481, 1.482, 1.483, 1.482, 1.482, 1.481, 1.48, 1.478, 1.477, 1.476, 1.476, 1.475, 1.474, 1.474, 1.474, 1.474, 1.474, 1.474, 1.473, 1.473, 1.473, 1.473, 1.473, 1.473, 1.474, 1.474, 1.474, 1.474, 1.474, 1.474, 1.474, 1.473, 1.472, 1.472, 1.471, 1.471, 1.47, 1.468, 1.468, 1.468, 1.468, 1.468, 1.468, 1.468, 1.468, 1.468, 1.468, 1.468, 1.469, 1.47, 1.47, 1.47, 1.47, 1.47, 1.47, 1.47, 1.47, 1.469, 1.466, 1.466, 1.464, 1.462, 1.462, 1.462, 1.462, 1.462, 1.462, 1.462
1.571, 1.57, 1.569, 1.57, 1.571, 1.571, 1.571, 1.571, 1.572, 1.572, 1.573, 1.576, 1.576, 1.576, 1.576, 1.577, 1.577, 1.578, 1.579, 1.579, 1.58, 1.58, 1.58, 1.579, 1.578, 1.577, 1.577, 1.573, 1.573, 1.573, 1.572, 1.571, 1.57, 1.569, 1.569, 1.568, 1.567, 1.564, 1.564, 1.564, 1.563, 1.563, 1.563, 1.563, 1.562, 1.562, 1.562, 1.562, 1.561, 1.56, 1.556, 1.555, 1.553, 1.552, 1.548, 1.547, 1.546, 1.545, 1.544, 1.544, 1.544, 1.544, 1.544, 1.545, 1.545, 1.546, 1.546, 1.545, 1.545, 1.544, 1.544, 1.544, 1.543, 1.542, 1.542, 1.542, 1.542, 1.543, 1.544, 1.544, 1.545, 1.546, 1.546, 1.546, 1.546, 1.546, 1.546, 1.546, 1.546, 1.546, 1.545, 1.544, 1.543, 1.543, 1.542, 1.539, 1.538, 1.537, 1.536, 1.535, 1.535, 1.535, 1.535, 1.535, 1.535, 1.535, 1.535, 1.535, 1.536, 1.536, 1.537, 1.537, 1.537, 1.537, 1.537, 1.537, 1.537, 1.537, 1.536, 1.535, 1.535, 1.534, 1.533, 1.533, 1.532, 1.532, 1.532, 1.532, 1.532, 1.532, 1.533, 1.532, 1.532, 1.531, 1.528, 1.527, 1.526, 1.525, 1.524, 1.524, 1.524, 1.525, 1.526, 1.527, 1.528, 1.528, 1.531, 1.532, 1.532, 1.531, 1.531, 1.528, 1.528, 1.528, 1.528, 1.528, 1.531, 1.532, 1.533, 1.534, 1.535, 1.535, 1.536, 1.536, 1.537, 1.536, 1.536, 1.535, 1.534, 1.533, 1.532, 1.528, 1.527, 1.526, 1.524, 1.523, 1.522, 1.52, 1.519, 1.518, 1.517, 1.516, 1.512, 1.512, 1.508, 1.509, 1.508, 1.508, 1.503, 1.499, 1.494, 1.488, 1.48, 1.472, 1.462, 1.454, 1.444, 1.438, 1.432, 1.427, 1.425, 1.423, 1.421, 1.419, 1.419, 1.419, 1.417, 1.417, 1.417, 1.415, 1.413, 1.413, 1.413, 1.412, 1.412, 1.412, 1.41, 1.41, 1.41, 1.41, 1.41, 1.41, 1.41, 1.41, 1.41, 1.41, 1.408, 1.408, 1.408, 1.408, 1.408, 1.406, 1.406, 1.406, 1.404, 1.402, 1.402, 1.4, 1.4, 1.4, 1.4, 1.399, 1.399, 1.399, 1.399, 1.399, 1.399, 1.4, 1.4, 1.4, 1.4, 1.402, 1.402, 1.402, 1.402, 1.402, 1.402, 1.402, 1.402, 1.402, 1.402, 1.402, 1.402, 1.4, 1.4, 1.4, 1.399, 1.399, 1.399, 1.397, 1.397, 1.397, 1.397, 1.397, 1.397, 1.397, 1.397, 1.395, 1.395, 1.395, 1.395, 1.395, 1.397, 1.397, 1.397, 1.399, 1.4, 1.402, 1.404, 1.406, 1.406, 1.408, 1.412, 1.412, 1.413, 1.413, 1.417, 1.421, 1.423, 1.427, 1.43, 1.434, 1.44, 1.446, 1.454, 1.462, 1.47, 1.476, 1.487, 1.489, 1.5, 1.503, 1.505, 1.506, 1.507, 1.508, 1.508, 1.508, 1.507, 1.506, 1.505, 1.504, 1.504, 1.503, 1.503, 1.503, 1.503, 1.503, 1.504, 1.505, 1.505, 1.505, 1.504, 1.503, 1.502, 1.501, 1.5, 1.495, 1.494, 1.493, 1.492, 1.491, 1.491, 1.49, 1.49, 1.491, 1.492, 1.492, 1.493, 1.494, 1.495, 1.499, 1.5, 1.5, 1.5, 1.5, 1.499, 1.499, 1.499, 1.499, 1.496, 1.495, 1.494, 1.493, 1.491, 1.49, 1.486, 1.485, 1.481, 1.48, 1.479, 1.479, 1.479, 1.48, 1.48, 1.481, 1.482, 1.483, 1.483, 1.482, 1.481, 1.48, 1.478, 1.477, 1.476, 1.476, 1.475, 1.475, 1.474, 1.474, 1.474, 1.474, 1.474, 1.474, 1.474, 1.474, 1.474, 1.474, 1.474, 1.475, 1.475, 1.475, 1.475, 1.475, 1.475, 1.474, 1.473, 1.472, 1.472, 1.472, 1.471, 1.47, 1.468, 1.468, 1.468, 1.468, 1.468, 1.468, 1.468, 1.468, 1.468, 1.468, 1.468, 1.469, 1.47, 1.47, 1.47, 1.471, 1.471, 1.47, 1.47, 1.47, 1.469, 1.466, 1.466, 1.464, 1.462, 1.462, 1.462, 1.462, 1.462, 1.462, 1.462
